ncols 251
nrows 62
xllcorner 630250
yllcorner 4834615
cellsize 1.000000
NODATA_value -9999.0
60.03 60.08 60.01 60.03 60.05 60.06 60.03 60.01 60.02 60.03 60.03 60.03 60.02 60.05 60.06 60.04 60.02 60.03 60.07 60.03 60.02 60.05 60.05 60.04 60.05 60.04 60.03 60.00 59.98 60.02 60.03 66.88 126.05 131.71 131.73 131.91 131.94 132.00 132.02 131.99 131.92 131.94 131.80 131.72 131.95 77.96 72.93 60.07 60.09 60.05 60.07 60.08 62.67 65.56 69.56 69.62 64.49 65.52 70.12 70.30 70.51 70.67 70.70 70.88 70.81 70.98 71.00 71.03 70.96 70.92 70.88 70.71 70.67 70.50 70.28 70.10 69.91 69.73 69.62 68.75 63.39 60.04 60.06 60.06 60.05 60.03 60.06 72.75 151.94 151.84 151.91 152.05 152.20 152.15 151.96 151.78 151.75 151.78 152.46 152.13 151.80 151.79 151.92 151.84 151.93 60.05 60.04 60.05 60.07 60.06 60.05 60.03 60.02 60.02 59.97 59.99 60.02 60.03 60.09 60.06 60.15 53.53 52.39 52.32 52.38 52.28 52.27 52.27 52.26 52.24 55.69 57.43 57.63 53.09 52.15 51.81 51.79 51.79 51.78 51.77 53.52 54.36 54.34 52.29 51.64 53.61 54.42 51.67 51.68 51.70 51.68 51.70 51.68 51.65 51.64 51.63 51.61 55.31 54.08 54.97 51.62 51.67 51.70 51.67 51.79 51.96 53.38 51.79 62.36 108.82 108.77 108.69 108.70 108.67 108.66 108.69 108.70 108.72 108.69 108.71 108.72 108.73 108.71 108.69 108.70 108.68 108.69 108.70 108.71 108.72 108.75 108.72 108.72 108.69 108.69 108.69 108.66 108.65 108.66 108.65 108.76 108.73 83.30 82.97 82.92 82.86 82.85 82.93 82.94 83.06 83.09 83.13 83.26 83.29 83.35 83.41 83.45 83.43 83.34 83.29 83.25 83.20 83.17 95.07 97.79 97.82 97.98 89.94 97.87 97.76 97.73 97.74 97.75 97.75 97.98 99.05 99.07 97.84 98.36 98.07 97.80 97.79 97.76 97.79 97.77 97.83 95.59 90.57 90.61 90.62 -9999.0
56.34 60.04 60.07 60.10 60.04 60.05 60.02 60.04 60.07 60.05 60.05 60.07 60.05 60.05 60.06 60.06 60.04 60.04 60.06 60.06 60.07 60.04 60.04 60.02 60.02 60.02 60.01 59.99 60.01 60.03 60.49 80.95 131.72 131.69 131.86 132.00 131.98 131.93 132.02 132.09 132.04 131.86 131.72 131.74 87.13 60.09 60.08 60.07 60.10 60.07 60.07 63.35 67.98 69.60 69.75 69.98 70.14 70.40 70.53 70.80 70.89 71.11 71.10 71.34 71.35 71.39 71.44 71.42 71.35 71.33 71.24 71.14 71.08 70.95 70.78 70.59 70.40 70.15 69.85 69.66 69.57 67.21 60.10 60.06 60.03 60.04 60.06 60.05 135.10 151.94 151.79 151.90 152.14 152.22 152.14 151.85 151.77 151.81 151.78 151.82 151.78 151.73 151.86 151.89 151.90 137.78 60.02 60.08 60.09 60.03 60.04 60.04 59.99 60.04 60.00 60.00 60.00 60.01 60.07 60.04 60.04 58.16 52.38 52.41 52.40 52.34 52.24 52.26 52.31 52.25 52.24 56.94 56.86 54.72 51.92 51.82 52.21 53.86 53.39 53.35 54.62 53.37 51.80 52.08 56.30 53.77 55.55 51.67 51.69 51.67 51.70 51.69 51.69 51.65 51.61 51.58 51.59 53.45 51.74 51.51 51.60 51.63 52.92 52.88 57.01 57.18 56.71 51.78 51.79 103.69 108.83 108.71 108.70 108.68 108.68 108.67 108.71 108.71 108.72 108.71 108.69 108.69 108.68 108.66 108.67 108.67 108.67 108.70 108.73 108.74 108.73 108.72 108.70 108.70 108.69 108.67 108.65 108.64 108.66 108.66 108.75 106.84 83.49 82.94 82.90 82.84 82.86 82.95 82.98 83.04 83.15 83.19 83.29 83.32 83.41 83.42 83.41 83.41 83.34 83.22 83.16 83.14 83.09 86.89 93.46 87.36 85.11 83.20 88.56 92.52 97.80 97.76 97.77 97.77 98.20 99.08 98.91 97.78 99.08 99.10 97.79 97.79 97.77 97.77 97.75 97.76 97.79 97.85 96.76 91.09 -9999.0
52.59 60.04 60.04 60.05 60.02 60.05 60.03 60.03 60.03 60.03 60.04 60.05 60.07 60.08 60.03 60.05 60.08 60.05 60.07 60.06 60.08 60.04 60.04 60.01 60.04 59.99 59.96 60.03 60.05 60.07 72.97 131.78 131.73 131.75 131.93 132.05 132.04 132.03 131.93 131.98 131.87 131.74 131.72 72.03 76.90 60.08 60.08 60.09 60.07 60.07 65.62 69.57 69.63 69.79 70.06 70.38 70.55 70.80 70.97 71.23 71.30 71.49 71.59 71.70 71.78 71.76 71.84 71.86 71.79 71.68 71.70 71.59 71.41 71.32 71.19 71.00 70.81 70.58 70.29 70.00 69.70 69.60 67.57 60.24 60.08 60.05 60.05 60.06 60.06 112.59 151.81 151.76 151.94 152.11 152.10 152.03 151.82 151.78 151.82 152.23 151.89 151.80 151.77 151.90 151.81 152.07 63.21 60.05 60.03 60.00 60.02 60.01 59.98 60.00 60.06 60.00 60.01 60.02 60.03 60.06 60.08 60.75 52.39 52.43 52.40 52.36 52.28 52.28 52.28 52.28 52.28 52.24 52.21 52.06 51.97 53.05 54.34 54.54 54.52 51.76 52.48 51.72 51.76 52.38 51.67 51.68 51.67 51.67 51.66 51.63 51.64 51.66 51.62 51.63 51.60 51.61 51.60 51.54 51.53 51.53 51.57 51.65 54.17 56.31 57.53 58.35 58.10 55.21 51.78 87.84 108.74 108.89 108.67 108.70 108.70 108.70 108.70 108.71 108.72 108.72 108.70 108.70 108.66 108.66 108.63 108.67 108.67 108.70 108.73 108.70 108.71 108.70 108.71 108.68 108.67 108.68 108.67 108.67 108.64 108.84 108.77 95.12 82.98 82.91 82.87 82.86 82.90 82.93 83.00 83.08 83.17 83.23 83.29 83.36 83.44 83.48 83.40 83.33 83.28 83.16 83.12 83.06 83.08 83.06 83.07 83.07 83.14 83.16 87.20 94.15 97.79 97.73 97.79 97.85 98.22 97.99 97.80 98.33 99.07 98.49 97.90 98.46 98.65 97.73 97.72 97.74 97.74 97.75 97.78 97.87 -9999.0
52.40 59.02 60.03 60.02 60.05 60.05 60.02 60.06 60.03 60.06 60.07 60.04 60.06 60.07 60.04 60.05 60.08 60.07 60.06 60.04 60.03 60.04 60.04 59.99 60.04 60.03 60.03 60.01 60.03 65.35 102.18 131.68 131.73 132.03 132.00 131.92 131.99 132.03 132.01 131.92 131.79 131.69 131.88 100.48 60.04 60.10 60.07 60.07 60.02 64.04 69.59 69.64 69.86 70.15 70.41 70.77 71.01 71.20 71.46 71.56 71.75 71.93 72.02 72.09 72.21 72.18 72.26 72.31 72.25 72.17 72.07 72.01 71.84 71.76 71.56 71.40 71.17 70.98 70.74 70.40 70.13 69.78 69.58 69.08 63.66 60.06 60.06 60.03 60.05 60.62 130.82 151.79 151.76 152.01 152.16 152.18 151.93 151.78 151.81 151.85 152.17 151.79 151.77 151.88 151.86 151.90 60.11 60.00 60.02 60.05 60.00 60.02 60.02 60.04 60.00 59.99 60.02 60.03 60.04 60.05 60.02 60.18 54.98 53.93 54.53 53.99 52.94 52.28 52.32 52.30 52.27 52.24 52.19 52.15 52.10 52.73 52.24 51.74 51.74 51.69 51.68 51.69 51.65 51.98 51.80 51.64 51.62 51.62 51.65 51.61 51.61 51.69 51.64 51.66 51.64 51.60 51.62 51.54 51.59 51.51 51.49 51.63 56.34 57.16 58.27 58.89 58.60 55.41 51.79 78.71 108.76 109.06 108.69 108.67 108.70 108.72 108.72 108.70 108.72 108.70 108.70 108.70 108.64 108.65 108.62 108.65 108.64 108.65 108.68 108.70 108.68 108.71 108.67 108.69 108.68 108.64 108.70 108.68 108.68 108.85 108.86 88.44 82.98 82.90 82.85 82.92 82.94 82.98 83.05 83.11 83.23 83.27 83.33 83.38 83.45 83.43 83.33 83.30 83.18 83.11 83.07 83.03 83.01 82.97 83.03 83.05 83.08 83.13 91.79 97.92 97.80 97.80 97.77 97.95 97.93 97.86 97.85 98.37 98.98 97.92 98.53 99.07 98.47 97.76 97.73 97.71 97.74 97.74 97.74 97.75 -9999.0
52.49 55.31 60.03 60.05 59.99 60.04 60.06 60.08 60.06 60.04 60.05 60.06 60.05 60.05 60.08 60.06 60.07 60.06 60.03 60.06 60.04 60.04 60.02 60.03 60.05 60.04 60.05 60.03 69.23 87.49 131.74 131.74 131.85 132.03 132.01 132.06 131.97 131.95 132.05 131.92 131.75 131.69 99.58 60.09 60.05 60.04 60.00 60.05 61.99 69.10 69.66 69.83 70.21 70.58 70.79 71.10 71.40 71.64 71.82 72.02 72.16 72.24 72.42 72.45 72.55 72.66 72.60 72.62 72.65 72.54 72.49 72.40 72.21 72.11 71.96 71.78 71.57 71.33 71.08 70.81 70.52 70.15 69.80 69.59 69.50 60.09 60.06 60.11 60.90 65.15 66.33 146.47 151.75 151.91 152.06 152.20 152.15 151.80 151.80 151.77 151.81 151.77 151.76 151.84 151.88 151.82 134.54 60.03 60.03 60.01 59.97 60.00 59.99 59.99 60.01 60.03 60.01 60.02 60.05 60.06 60.14 60.22 59.79 59.36 60.75 54.91 57.43 52.41 52.30 52.27 52.28 52.26 52.27 52.25 52.21 52.19 52.02 51.71 51.69 51.64 51.61 51.58 51.54 51.56 51.95 51.64 51.61 51.62 51.63 51.59 51.63 51.70 51.65 51.65 51.65 51.63 51.59 51.56 51.54 51.49 51.49 51.58 56.17 56.59 59.35 58.27 57.58 55.02 51.77 68.95 108.92 108.90 108.81 108.67 108.69 108.73 108.69 108.69 108.71 108.70 108.66 108.67 108.62 108.63 108.65 108.66 108.64 108.63 108.66 108.69 108.68 108.70 108.66 108.68 108.70 108.68 108.65 108.67 108.86 108.76 92.06 83.01 82.94 82.91 82.90 82.93 82.94 83.03 83.09 83.15 83.24 83.32 83.39 83.42 83.43 83.40 83.35 83.29 83.17 83.10 83.07 82.97 82.91 82.92 82.97 82.99 83.04 87.99 95.46 97.86 97.79 97.77 97.75 97.89 97.81 97.78 97.83 98.22 98.10 97.79 98.73 99.03 97.77 97.73 97.70 97.73 97.70 98.37 97.84 97.70 -9999.0
52.50 56.61 60.17 60.09 60.00 60.12 60.06 60.05 60.05 60.05 60.08 60.05 60.03 60.06 60.05 60.09 60.07 60.05 60.02 60.08 60.04 60.05 60.04 60.04 60.03 60.03 60.06 60.01 64.70 105.66 131.74 131.85 131.97 132.05 132.01 132.03 132.04 131.97 131.94 131.76 131.73 130.10 72.48 60.01 60.02 60.02 60.07 63.25 67.61 69.68 69.92 70.21 70.60 70.98 71.19 71.45 71.78 71.96 72.16 72.37 72.52 72.62 72.84 72.86 72.91 73.00 72.96 72.97 72.97 72.90 72.83 72.75 72.62 72.47 72.30 72.10 71.91 71.70 71.45 71.12 70.83 70.50 70.13 69.81 69.60 64.51 60.05 62.03 66.26 66.32 66.33 83.80 151.77 151.78 151.96 152.23 152.14 151.97 151.79 151.79 151.79 151.76 151.78 151.81 151.90 151.80 152.03 68.59 60.04 60.02 60.00 60.03 60.02 60.03 60.04 60.02 60.01 60.02 60.03 60.09 60.05 60.08 60.69 54.14 58.92 61.66 55.34 56.96 52.26 52.28 52.30 52.29 52.31 52.29 52.24 52.18 52.29 51.61 51.58 51.54 51.53 51.51 51.47 51.46 51.65 51.62 51.60 51.60 51.63 51.59 51.58 51.67 51.65 51.66 51.61 51.63 51.57 51.59 51.54 51.52 51.48 51.51 55.23 52.32 57.93 56.84 54.97 51.72 51.80 51.82 108.08 108.78 108.82 108.70 108.70 108.70 108.69 108.70 108.67 108.68 108.66 108.65 108.64 108.64 108.64 108.61 108.59 108.63 108.64 108.65 108.67 108.65 108.67 108.69 108.66 108.66 108.66 108.69 108.78 108.84 86.01 82.99 82.95 82.90 82.93 82.92 82.99 83.06 83.10 83.21 83.26 83.35 83.37 83.45 83.40 83.33 83.31 83.26 83.16 83.07 82.98 82.93 82.87 82.84 82.87 82.93 83.01 91.74 97.96 97.85 97.81 97.79 97.78 97.78 97.97 97.87 97.97 97.86 97.76 97.93 98.28 97.88 97.75 97.71 97.69 97.70 97.76 99.03 98.76 97.73 -9999.0
52.51 56.07 58.60 60.05 60.09 60.06 60.05 60.05 60.05 60.04 60.05 60.06 60.05 60.08 60.03 60.05 60.04 60.05 60.05 60.05 60.07 60.03 60.09 60.05 60.05 60.04 60.00 77.27 93.66 131.72 131.69 131.91 132.01 131.97 131.98 131.98 132.01 132.03 131.92 131.73 131.81 108.47 60.04 60.00 60.04 60.04 60.10 67.24 69.61 69.89 70.19 70.52 70.88 71.27 71.57 71.73 72.10 72.32 72.46 72.71 72.83 72.94 73.14 73.18 73.24 73.31 73.30 73.29 73.28 73.23 73.16 73.10 72.97 72.81 72.66 72.46 72.22 72.00 71.79 71.54 71.13 70.87 70.51 70.11 69.80 69.61 62.93 65.65 66.30 66.30 66.30 66.31 151.98 151.72 151.91 152.11 152.17 152.04 151.82 151.78 151.77 151.80 151.79 151.81 151.94 151.83 151.89 112.50 60.02 60.01 59.98 60.03 59.99 60.02 60.03 60.02 60.04 60.03 60.03 60.07 60.06 60.08 60.07 61.35 60.40 62.52 61.42 54.92 52.25 52.29 52.30 52.29 52.31 52.26 52.26 52.25 52.14 51.52 51.51 51.50 51.46 51.46 51.43 51.36 51.50 51.68 51.61 51.57 51.57 51.58 51.62 51.60 51.67 51.60 51.63 51.59 51.61 51.54 51.52 51.54 51.53 51.47 51.60 51.63 51.64 51.67 52.03 51.75 51.75 51.80 82.80 108.77 108.78 108.69 108.68 108.68 108.68 108.68 108.66 108.67 108.64 108.65 108.63 108.63 108.61 108.60 108.63 108.62 108.63 108.66 108.68 108.66 108.68 108.66 108.63 108.64 108.64 108.81 108.74 88.99 82.96 82.94 82.94 82.93 82.94 82.92 83.01 83.05 83.14 83.20 83.29 83.36 83.37 83.39 83.35 83.27 83.26 83.21 83.12 83.02 82.96 82.88 82.87 82.83 82.87 82.93 89.06 90.73 94.68 95.97 97.89 97.82 97.81 97.78 97.88 97.81 97.87 97.96 97.92 97.96 97.80 97.73 97.72 97.70 97.71 97.68 97.68 98.72 97.99 97.65 -9999.0
54.13 52.48 52.58 60.04 60.13 60.09 60.05 60.03 60.03 60.03 60.01 60.03 60.04 60.07 60.07 60.08 60.07 60.04 60.08 60.05 60.05 60.08 60.03 60.08 60.07 60.03 60.03 60.06 131.87 131.74 131.80 132.02 132.04 131.97 131.97 131.96 131.90 131.92 131.78 131.74 131.96 60.03 60.03 60.07 60.04 60.02 65.11 69.61 69.71 70.08 70.56 70.87 71.20 71.55 71.87 72.06 72.36 72.59 72.78 73.02 73.14 73.29 73.41 73.50 73.49 73.56 73.63 73.60 73.57 73.50 73.46 73.38 73.25 73.09 72.96 72.78 72.58 72.29 72.05 71.79 71.50 71.18 70.79 70.43 70.00 69.69 69.54 67.01 66.32 66.30 66.29 60.75 89.78 152.01 151.83 152.03 152.20 152.15 151.95 151.79 151.78 151.78 151.80 151.82 151.89 151.79 151.98 60.06 60.02 60.03 60.03 60.03 60.08 60.00 60.02 60.02 59.99 60.00 60.02 60.04 60.03 60.10 60.04 61.11 62.36 61.40 59.92 52.32 52.26 52.30 52.28 52.29 52.29 52.33 52.30 52.29 52.22 51.52 51.43 51.41 51.40 51.32 51.32 51.28 51.33 51.62 51.57 51.58 51.58 51.58 51.62 51.58 51.64 51.59 51.66 51.61 51.60 51.57 51.58 51.55 51.53 51.47 51.61 51.61 51.61 51.68 52.76 55.36 54.84 51.77 58.02 108.96 108.77 108.72 108.71 108.69 108.67 108.68 108.67 108.65 108.66 108.64 108.64 108.63 108.63 108.60 108.59 108.63 108.65 108.66 108.66 108.66 108.61 108.62 108.66 108.63 108.67 108.76 108.82 86.03 82.97 82.92 82.95 82.95 82.93 82.96 82.99 83.09 83.18 83.27 83.32 83.40 83.46 83.38 83.34 83.25 83.24 83.20 83.09 82.96 82.90 82.85 82.84 82.84 82.89 84.06 90.77 90.69 90.64 90.65 90.67 97.98 97.89 97.81 97.79 97.77 97.79 97.78 97.92 97.92 97.93 97.91 97.75 97.72 97.71 97.68 97.66 97.66 97.65 97.63 -9999.0
54.53 52.53 60.58 60.04 60.06 60.02 60.04 60.05 60.02 60.03 60.01 60.07 60.08 60.05 60.08 60.05 60.07 60.02 60.07 60.08 60.07 60.02 60.03 60.08 60.04 60.01 60.05 124.24 131.76 131.78 131.91 131.92 131.95 131.95 131.97 131.89 131.99 131.98 131.77 131.78 64.44 60.03 60.05 60.02 60.05 61.17 69.57 69.65 70.02 70.32 70.85 71.17 71.48 71.82 72.15 72.33 72.64 72.90 73.07 73.24 73.46 73.56 73.60 73.76 73.80 73.82 73.92 73.88 73.83 73.78 73.75 73.61 73.53 73.41 73.22 73.06 72.86 72.57 72.35 72.06 71.78 71.44 71.10 70.72 70.29 69.89 69.64 68.63 66.31 66.29 63.29 60.09 60.08 145.33 151.77 151.89 152.14 152.20 152.02 151.78 151.81 151.87 151.91 152.04 151.97 151.87 151.80 78.16 60.01 60.03 60.02 60.02 60.00 60.01 59.98 59.98 60.00 60.03 60.02 60.03 60.04 60.02 60.06 57.14 52.46 56.29 54.20 52.37 52.28 52.67 52.29 52.27 52.28 52.31 52.32 52.27 52.24 51.63 51.33 51.31 51.31 51.28 51.26 51.22 51.19 51.82 51.59 51.57 51.60 51.60 51.58 51.61 51.61 51.65 51.66 51.63 51.63 51.56 51.57 51.55 51.49 51.43 51.57 51.62 51.63 51.67 56.33 56.42 56.32 52.01 51.80 97.46 108.78 108.72 108.71 108.71 108.67 108.66 108.68 108.68 108.65 108.65 108.63 108.67 108.64 108.61 108.62 108.63 108.64 108.65 108.66 108.64 108.65 108.64 108.66 108.65 108.91 108.74 109.04 82.99 82.89 82.92 82.91 82.94 82.96 83.01 83.03 83.14 83.24 83.31 83.36 83.45 83.44 83.36 83.28 83.26 83.18 83.15 83.03 82.95 82.90 82.84 82.83 82.85 82.91 89.39 90.67 90.68 90.64 90.65 90.64 90.65 93.30 97.99 97.87 97.80 97.75 97.77 97.77 97.78 97.85 97.95 97.92 97.83 97.74 97.67 97.66 97.64 97.64 97.60 -9999.0
61.83 58.71 54.76 56.83 60.05 60.04 60.05 60.02 60.06 60.05 60.07 60.05 60.10 60.07 60.09 60.06 60.01 60.05 60.06 60.05 60.04 60.06 60.05 60.04 60.01 75.03 98.96 131.82 131.74 131.81 131.94 131.96 131.99 131.91 131.90 131.88 131.97 131.78 131.73 128.83 104.71 60.03 60.04 60.03 60.05 65.05 69.61 69.85 70.27 70.63 71.07 71.44 71.75 72.11 72.42 72.69 72.89 73.20 73.37 73.51 73.71 73.79 73.86 74.00 74.09 74.10 74.18 74.15 74.08 74.06 74.01 73.86 73.76 73.64 73.45 73.28 73.08 72.86 72.60 72.34 72.03 71.70 71.36 70.97 70.53 70.15 69.78 69.56 63.30 60.08 60.05 60.07 60.07 113.43 151.81 151.85 152.08 152.11 152.07 152.00 152.05 152.10 152.18 152.16 152.43 151.87 151.88 143.27 60.03 60.02 60.01 60.02 59.99 60.02 60.01 60.02 60.05 60.04 60.04 60.04 60.06 60.03 60.08 60.14 52.42 52.39 52.40 52.42 52.30 52.34 52.31 52.29 52.30 52.33 52.32 52.27 52.24 52.04 51.22 51.23 51.19 51.22 51.18 51.15 51.10 51.70 51.57 51.55 51.57 51.58 51.62 51.60 51.58 51.67 51.62 51.61 51.61 51.64 51.56 51.53 51.47 51.46 51.49 51.62 51.64 51.63 54.94 56.34 54.41 52.84 51.80 72.04 108.84 108.80 108.71 108.71 108.71 108.68 108.67 108.68 108.68 108.68 108.67 108.64 108.64 108.60 108.65 108.64 108.64 108.65 108.65 108.65 108.62 108.66 108.65 108.65 108.74 108.80 82.98 82.96 82.88 82.89 82.91 82.96 83.01 83.06 83.09 83.20 83.26 83.38 83.39 83.45 83.41 83.33 83.27 83.24 83.16 83.08 83.00 82.94 82.88 82.84 82.84 82.91 84.48 90.75 90.70 90.66 90.65 90.63 90.64 90.66 90.63 90.62 93.07 97.97 97.91 97.77 97.78 97.76 97.75 97.77 97.84 97.94 97.91 97.80 97.67 97.67 97.65 97.63 -9999.0
64.52 58.18 52.52 58.16 60.04 60.04 60.06 60.06 60.06 60.07 60.07 60.00 60.07 60.05 60.05 60.07 60.04 60.08 60.07 60.05 60.07 60.08 60.07 60.08 68.60 96.39 128.54 131.77 131.69 131.88 131.99 132.00 132.02 131.90 132.02 131.95 131.89 131.74 131.71 113.52 60.02 60.04 60.04 60.03 61.65 69.55 69.72 70.03 70.51 70.90 71.23 71.66 72.00 72.33 72.63 72.94 73.16 73.40 73.61 73.70 73.93 74.02 74.16 74.24 74.33 74.32 74.36 74.38 74.35 74.28 74.25 74.11 74.00 73.88 73.73 73.51 73.29 73.12 72.86 72.58 72.26 71.91 71.60 71.22 70.81 70.36 69.96 69.67 63.22 60.06 60.05 60.06 60.05 81.26 152.03 151.83 151.98 152.10 152.14 152.12 152.12 152.14 152.19 152.14 152.05 151.96 151.81 136.71 60.06 60.04 60.03 60.02 60.03 60.02 60.03 60.02 60.02 60.06 60.03 60.02 60.06 60.03 60.10 60.29 53.75 52.38 52.36 52.29 52.26 52.30 52.29 52.30 52.27 52.28 52.28 52.30 52.25 52.25 51.19 51.12 51.11 51.18 51.08 51.07 50.99 51.14 51.85 51.54 51.53 51.56 51.59 51.55 51.58 51.64 51.60 51.61 51.58 51.56 51.56 51.52 51.48 51.42 51.45 51.58 51.63 51.65 55.57 54.94 51.76 51.76 51.79 51.82 108.89 108.82 108.71 108.72 108.69 108.67 108.69 108.67 108.66 108.69 108.67 108.66 108.66 108.64 108.62 108.62 108.65 108.65 108.64 108.63 108.67 108.66 108.62 108.68 108.74 108.99 82.97 82.87 82.86 82.89 82.92 82.98 83.00 83.07 83.17 83.18 83.32 83.39 83.41 83.42 83.36 83.31 83.23 83.19 83.06 83.01 82.96 82.90 82.86 82.83 82.90 82.99 87.71 90.72 90.64 90.64 90.63 90.61 90.62 90.61 90.61 90.64 90.59 90.65 90.64 97.09 97.21 97.80 97.75 97.79 97.79 97.87 97.95 97.69 97.71 97.66 97.68 97.66 -9999.0
62.14 59.49 57.77 58.45 60.03 60.04 60.03 60.06 60.06 60.06 60.06 60.07 60.05 60.05 60.03 60.08 60.07 60.02 60.02 60.09 60.06 60.06 60.09 60.09 84.15 110.98 132.06 131.78 131.74 131.84 131.88 132.02 131.96 132.02 132.00 131.98 131.91 131.69 131.76 74.08 60.01 60.03 60.02 60.02 61.96 69.63 69.87 70.22 70.66 71.19 71.42 71.88 72.24 72.54 72.86 73.15 73.38 73.58 73.84 73.94 74.11 74.26 74.37 74.42 74.52 74.57 74.55 74.58 74.53 74.50 74.44 74.37 74.21 74.09 73.96 73.75 73.52 73.29 73.06 72.80 72.52 72.16 71.77 71.45 71.08 70.55 70.17 69.75 68.16 60.12 60.05 60.03 60.03 86.38 142.77 151.79 151.87 152.14 152.10 152.16 152.14 152.18 152.15 152.14 152.09 151.94 151.80 152.07 60.06 60.00 60.02 60.03 60.03 60.01 60.01 60.04 60.02 60.02 60.03 60.04 60.03 60.02 60.04 60.12 58.63 52.29 52.29 52.27 52.29 52.29 52.27 52.31 52.31 52.29 52.29 52.31 52.27 52.21 51.61 51.04 51.03 51.05 50.99 50.94 50.93 50.92 52.27 51.54 51.55 51.53 51.56 51.59 51.61 51.58 51.62 51.62 51.58 51.55 51.56 51.53 51.53 51.46 51.44 51.58 51.62 51.63 54.67 51.69 51.74 51.75 51.79 51.81 86.59 108.80 108.77 108.70 108.68 108.68 108.67 108.68 108.71 108.69 108.69 108.67 108.67 108.64 108.65 108.63 108.66 108.64 108.65 108.65 108.62 108.63 108.64 108.75 106.09 83.05 82.94 82.85 82.83 82.90 82.95 82.96 83.03 83.10 83.20 83.25 83.30 83.43 83.39 83.41 83.30 83.27 83.19 83.13 83.06 82.99 82.88 82.84 82.88 82.84 82.92 84.79 90.73 90.69 90.63 90.65 90.60 90.61 90.58 90.61 90.58 90.59 90.61 90.62 90.64 90.64 93.10 97.68 97.85 97.76 98.71 97.93 97.87 97.70 97.69 97.70 97.66 97.68 -9999.0
54.28 56.40 52.57 54.49 60.21 60.04 59.97 60.06 60.07 60.04 60.07 60.10 60.06 60.04 60.08 60.08 60.02 60.03 60.03 60.06 60.08 60.05 60.05 68.12 92.90 116.70 131.93 131.76 131.75 131.76 131.78 131.78 131.81 131.87 131.96 131.93 131.84 131.69 131.86 64.92 60.03 60.01 60.01 60.02 66.87 69.68 70.00 70.47 70.88 71.33 71.62 72.09 72.44 72.73 73.05 73.35 73.54 73.79 74.00 74.16 74.26 74.44 74.53 74.58 74.71 74.76 74.73 74.75 74.74 74.66 74.58 74.49 74.37 74.26 74.14 73.91 73.72 73.51 73.27 72.97 72.73 72.39 72.01 71.61 71.26 70.80 70.36 69.92 69.62 60.19 60.02 60.01 60.02 66.16 122.42 151.76 151.85 152.09 152.11 152.07 152.16 152.08 152.16 152.18 152.10 151.96 151.93 127.75 60.01 60.01 60.04 60.03 60.03 60.02 60.05 60.00 60.01 60.02 60.02 60.06 60.04 60.04 60.05 60.03 60.21 52.30 52.31 52.28 52.29 52.30 52.31 52.29 52.30 52.30 52.30 52.28 52.26 52.25 52.28 50.97 50.95 50.90 50.94 50.89 50.86 50.85 51.47 51.54 51.54 51.59 51.58 51.57 51.59 51.55 51.63 51.63 51.59 51.57 51.55 51.53 51.47 51.47 51.42 51.49 51.63 51.62 51.67 52.16 51.67 51.73 51.77 51.82 94.47 108.79 109.06 108.69 108.67 108.71 108.69 108.70 108.70 108.71 108.68 108.68 108.68 108.66 108.66 108.65 108.65 108.65 108.65 108.63 108.63 108.63 108.86 108.71 102.67 82.99 82.87 82.85 82.82 82.92 82.94 82.99 83.10 83.19 83.22 83.29 83.32 83.42 83.44 83.37 83.30 83.23 83.17 83.09 83.02 82.92 82.86 82.85 82.87 82.87 82.96 90.82 90.69 90.63 90.61 90.60 90.59 90.57 90.58 90.57 90.59 90.57 90.60 90.57 90.60 90.63 90.61 90.65 91.00 97.10 97.88 98.01 98.00 97.75 97.74 97.67 97.71 97.68 -9999.0
52.46 52.49 52.52 52.53 60.87 60.05 60.16 60.01 60.06 60.07 60.06 60.05 60.01 60.07 60.07 60.04 60.05 60.05 60.06 60.08 60.06 60.04 60.07 73.86 101.93 127.38 131.88 131.73 131.73 131.72 131.70 132.32 131.80 131.86 131.97 131.94 131.78 131.71 132.09 74.67 59.99 60.00 60.01 61.70 69.58 69.74 70.19 70.67 71.03 71.44 71.94 72.22 72.61 72.97 73.23 73.50 73.71 73.95 74.16 74.36 74.45 74.54 74.66 74.80 74.85 74.91 74.93 74.92 74.92 74.85 74.73 74.66 74.53 74.38 74.31 74.11 73.91 73.70 73.44 73.14 72.90 72.56 72.19 71.78 71.39 71.00 70.48 70.06 69.64 64.50 60.00 59.99 59.99 60.00 109.19 151.92 151.75 151.98 152.20 152.09 152.10 152.05 152.10 152.07 152.02 151.95 151.83 152.06 60.04 60.01 60.03 60.04 60.03 60.03 60.05 60.04 60.00 60.02 60.01 60.03 60.05 60.04 60.04 60.07 60.11 55.23 52.30 52.29 52.31 52.27 52.30 52.30 52.36 52.32 53.42 57.32 54.46 54.19 52.49 50.94 50.86 50.82 50.84 50.85 50.76 50.76 50.73 52.00 51.47 51.52 51.51 51.56 51.56 51.56 51.57 51.62 51.60 51.57 51.54 51.55 51.49 51.44 51.45 51.49 51.54 51.61 51.64 51.67 54.22 51.71 51.77 51.78 78.44 108.82 108.93 108.72 108.71 108.68 108.73 108.70 108.72 108.69 108.68 108.69 108.67 108.68 108.67 108.66 108.64 108.66 108.64 108.64 108.63 108.71 108.81 108.85 83.00 82.93 82.86 82.82 82.84 82.94 82.97 83.02 83.12 83.24 83.28 83.29 83.39 83.42 83.37 83.32 83.26 83.20 83.15 83.04 83.00 82.89 82.84 82.84 82.86 82.92 86.98 90.76 90.68 90.66 90.63 90.61 90.58 90.56 90.57 90.57 90.56 90.54 90.56 90.55 90.61 90.60 90.62 90.62 90.62 91.54 96.29 97.87 97.84 97.79 97.75 97.73 97.72 97.68 -9999.0
52.46 53.26 52.75 52.49 58.23 60.09 60.02 60.13 60.07 60.07 60.04 60.01 60.08 60.08 60.05 60.07 60.07 60.05 60.06 60.05 60.07 60.06 60.06 70.30 102.56 132.14 131.81 131.76 131.73 131.70 131.71 131.68 131.69 131.89 131.96 132.07 131.75 131.72 82.93 60.01 60.05 60.00 60.01 65.55 69.62 69.85 70.29 70.85 71.18 71.66 72.11 72.39 72.77 73.09 73.32 73.61 73.88 74.08 74.27 74.47 74.59 74.72 74.88 74.94 74.99 75.06 75.06 75.05 75.04 74.97 74.91 74.83 74.70 74.53 74.39 74.24 74.06 73.82 73.58 73.31 73.00 72.73 72.33 71.92 71.52 71.17 70.65 70.21 69.77 69.47 60.13 60.03 60.00 65.82 122.31 152.04 151.81 151.94 152.05 152.12 152.14 152.13 152.12 152.15 152.15 151.95 151.83 152.01 60.07 60.05 60.02 60.03 60.05 60.04 60.06 60.06 60.03 60.03 60.03 60.04 60.05 60.07 60.05 60.08 60.06 60.78 52.29 52.28 52.30 52.31 52.33 52.30 52.30 52.47 53.73 57.47 59.22 58.41 58.22 54.97 51.01 50.77 50.78 50.72 50.71 50.65 50.69 52.00 51.53 51.50 51.55 51.54 51.57 51.56 51.59 51.61 51.61 51.58 51.57 51.53 51.52 51.46 51.43 51.44 51.56 51.65 51.62 55.62 56.33 56.51 52.30 51.80 53.58 108.98 108.77 108.85 108.70 108.71 108.70 108.68 108.70 108.67 108.69 108.68 108.67 108.68 108.67 108.65 108.65 108.66 108.63 108.66 108.65 108.81 108.75 98.20 82.96 82.86 82.86 82.87 82.91 82.96 83.00 83.09 83.16 83.25 83.31 83.36 83.37 83.39 83.34 83.28 83.21 83.16 83.11 82.99 82.90 82.89 82.89 82.87 82.86 82.96 85.64 90.73 90.66 90.63 90.62 90.60 90.56 90.54 90.55 90.53 90.53 90.55 90.55 90.56 90.53 90.54 90.56 90.61 90.63 90.60 90.61 90.64 95.88 97.89 97.81 97.79 97.72 97.73 -9999.0
52.37 52.53 53.79 52.55 57.68 60.34 60.08 60.10 60.09 60.00 60.02 60.03 60.06 60.07 60.08 60.08 60.08 60.08 60.07 60.08 60.06 60.04 60.05 74.58 107.06 132.09 131.73 131.73 131.71 131.69 131.72 131.67 131.74 131.89 131.97 132.00 131.72 131.75 99.61 60.01 60.02 60.05 60.03 68.37 69.65 69.94 70.43 70.95 71.31 71.76 72.20 72.50 72.89 73.25 73.49 73.74 74.02 74.22 74.39 74.59 74.72 74.87 74.96 75.05 75.11 75.19 75.21 75.19 75.18 75.12 75.02 74.92 74.83 74.66 74.48 74.32 74.16 73.94 73.68 73.44 73.09 72.81 72.48 72.07 71.66 71.27 70.81 70.33 69.83 69.58 60.69 60.01 59.99 60.02 101.59 152.13 151.81 151.91 152.08 152.14 152.13 152.12 152.14 152.15 152.16 151.96 151.84 152.00 60.05 60.05 60.06 60.08 60.04 60.03 60.07 60.05 60.04 60.03 60.02 60.08 60.05 60.06 60.05 60.03 60.06 60.57 52.31 52.29 52.34 52.31 52.32 52.29 52.32 52.32 52.30 56.01 59.60 59.19 59.18 57.29 54.79 50.68 50.66 50.66 50.63 50.61 50.54 50.99 51.60 51.50 51.52 51.52 51.57 51.55 51.57 51.62 51.61 51.60 51.61 51.99 51.54 51.50 51.44 51.41 51.53 51.60 51.63 54.38 52.26 51.74 51.75 51.79 51.77 92.60 108.78 108.75 108.71 108.68 108.67 108.67 108.67 108.69 108.69 108.66 108.65 108.68 108.66 108.69 108.64 108.67 108.68 108.67 108.68 108.80 105.04 83.44 82.91 82.88 82.88 82.88 82.96 82.96 83.05 83.14 83.20 83.27 83.32 83.37 83.41 83.37 83.30 83.27 83.17 83.10 83.05 82.96 82.89 82.86 82.87 82.86 82.93 86.30 90.72 90.69 90.65 90.64 90.58 90.59 90.57 90.55 90.54 90.53 90.52 90.55 90.54 90.55 90.55 90.55 90.58 90.58 90.61 90.63 90.61 90.60 90.61 91.21 93.59 97.65 97.82 97.78 -9999.0
52.25 52.50 52.53 52.47 52.52 60.40 60.07 60.05 60.02 60.05 60.09 60.09 60.04 60.03 60.08 60.08 60.09 60.09 60.07 60.05 60.02 60.00 60.03 78.07 108.61 131.99 131.72 131.70 131.71 131.72 132.79 132.05 131.78 131.87 131.98 131.84 131.72 131.78 85.74 60.00 60.00 60.04 60.04 68.91 69.68 70.00 70.54 71.05 71.44 71.85 72.30 72.66 73.00 73.32 73.60 73.86 74.12 74.34 74.49 74.66 74.80 74.96 75.05 75.14 75.21 75.25 75.30 75.26 75.23 75.21 75.13 75.01 74.95 74.79 74.62 74.41 74.26 74.03 73.77 73.52 73.25 72.87 72.58 72.19 71.75 71.36 70.94 70.38 69.97 69.63 65.65 60.02 60.02 60.05 81.07 137.34 151.77 151.90 152.08 152.14 152.10 152.14 152.13 152.21 152.13 152.00 151.83 151.86 60.08 60.02 60.06 60.06 60.06 60.05 60.09 60.05 60.05 60.06 60.08 60.04 60.07 60.06 60.04 60.07 60.05 60.43 57.10 52.31 52.30 52.40 52.35 52.29 52.31 52.29 52.31 52.84 59.14 59.91 52.93 57.78 56.29 50.59 50.59 50.54 50.59 50.51 50.53 50.53 51.81 51.47 51.51 51.55 51.55 51.57 51.57 51.59 51.60 51.59 51.87 52.46 52.11 51.48 51.46 51.41 51.46 51.58 51.61 51.66 51.68 51.70 51.73 51.78 51.78 68.06 108.88 108.75 108.70 108.68 108.63 108.67 108.64 108.69 108.68 108.69 108.68 108.67 108.67 108.67 108.68 108.68 108.67 108.68 108.76 108.83 102.20 83.00 82.89 82.87 82.90 82.94 82.97 83.02 83.12 83.18 83.26 83.37 83.32 83.38 83.39 83.33 83.28 83.19 83.13 83.07 83.03 82.95 82.90 82.87 82.87 82.88 82.92 85.48 90.70 90.66 90.61 90.61 90.56 90.56 90.53 90.51 90.51 90.50 90.51 90.53 90.52 90.52 90.53 90.57 90.57 90.58 90.59 90.58 90.59 90.63 90.61 90.63 90.59 90.59 93.50 97.90 -9999.0
52.32 52.46 52.50 52.49 52.53 60.72 60.05 60.07 60.07 60.03 60.09 60.07 60.06 60.09 60.08 60.06 60.04 60.04 60.03 60.01 60.00 60.04 60.06 70.37 101.36 132.07 131.70 131.73 131.71 131.70 131.87 132.06 131.78 131.98 131.93 131.87 131.72 131.90 60.04 60.05 60.04 60.03 60.10 66.57 69.69 70.11 70.63 71.13 71.52 71.95 72.36 72.76 73.06 73.40 73.69 73.94 74.18 74.40 74.58 74.68 74.91 75.03 75.11 75.24 75.30 75.36 75.36 75.35 75.33 75.29 75.24 75.16 75.02 74.91 74.72 74.51 74.29 74.07 73.85 73.59 73.34 72.95 72.64 72.26 71.82 71.44 71.05 70.51 70.03 69.66 61.09 60.04 60.01 60.02 86.79 150.52 151.83 151.85 152.05 152.15 152.15 152.06 152.11 152.09 152.07 151.96 151.83 152.04 60.04 60.06 60.03 60.04 60.05 60.04 60.06 60.08 60.09 60.03 60.06 60.05 60.06 60.04 60.04 60.12 60.06 60.09 60.97 52.43 52.44 52.43 52.37 52.30 52.32 52.32 52.31 55.09 58.38 56.64 55.16 56.59 52.55 50.53 50.50 50.49 50.50 50.47 50.40 50.46 51.90 51.50 51.46 51.53 51.48 51.53 51.56 51.51 51.58 51.56 51.58 52.72 52.68 51.51 51.52 51.44 51.37 51.60 51.64 51.65 51.68 51.67 51.74 51.76 51.77 51.80 106.24 108.74 108.68 108.68 108.63 108.66 108.66 108.67 108.69 108.66 108.69 108.67 108.65 108.66 108.68 108.66 108.66 108.72 108.76 107.48 83.02 82.96 82.91 82.92 82.91 82.96 82.99 83.05 83.16 83.16 83.29 83.34 83.38 83.39 83.35 83.32 83.23 83.18 83.12 83.05 82.97 82.94 82.91 82.89 82.90 82.90 82.99 90.75 90.70 90.59 90.62 90.59 90.55 90.55 90.54 90.52 90.53 90.52 90.53 90.50 90.51 90.54 90.53 90.55 90.60 90.59 90.59 90.63 90.60 90.61 90.62 90.58 90.63 90.59 90.59 92.66 -9999.0
52.30 52.26 52.53 52.54 52.52 53.63 60.12 60.05 60.07 60.08 60.08 60.04 60.03 60.06 60.03 60.04 60.00 60.01 60.00 59.98 60.00 60.03 60.03 77.73 111.06 131.91 131.72 131.74 131.69 131.71 131.69 131.78 131.74 131.96 132.00 131.86 131.71 131.98 71.12 60.04 60.03 60.04 60.07 68.53 69.75 70.17 70.67 71.09 71.59 72.03 72.39 72.80 73.12 73.43 73.76 74.00 74.25 74.44 74.62 74.80 74.97 75.11 75.13 75.29 75.35 75.41 75.43 75.44 75.39 75.34 75.32 75.22 75.07 74.95 74.79 74.57 74.35 74.14 73.93 73.65 73.35 72.99 72.68 72.33 71.89 71.47 71.10 70.57 70.04 69.67 67.10 60.05 60.02 60.02 73.42 130.14 151.96 151.83 152.03 152.08 152.08 152.09 152.08 152.12 152.15 152.02 151.80 152.00 77.52 60.02 60.05 60.02 60.04 60.05 60.09 60.07 60.02 60.06 60.05 60.05 60.06 60.08 60.08 60.08 60.08 60.11 60.42 53.43 52.46 52.45 52.44 52.31 52.34 52.34 52.29 52.30 53.61 53.92 52.27 53.10 52.06 50.43 50.44 50.39 50.39 50.36 50.33 50.30 52.07 51.52 51.50 51.48 51.48 51.55 51.53 51.58 51.58 51.61 51.58 52.62 52.83 51.68 51.47 51.45 51.39 51.51 51.61 51.65 52.22 53.73 51.71 52.42 51.78 51.79 81.89 108.75 108.72 108.71 108.67 108.65 108.64 108.66 108.66 108.65 108.68 108.65 108.64 108.67 108.69 108.65 108.66 108.87 108.75 84.96 82.97 82.87 82.91 82.95 82.95 82.97 83.02 83.10 83.17 83.21 83.30 83.36 83.40 83.38 83.34 83.26 83.21 83.12 83.06 83.00 82.93 82.92 82.89 82.89 82.88 82.94 88.14 90.74 90.64 90.62 90.62 90.58 90.57 90.59 90.55 90.54 90.54 90.51 90.52 90.55 90.52 90.54 90.54 90.56 90.58 90.59 90.63 90.61 90.62 90.61 90.58 90.59 90.53 90.57 90.60 90.61 -9999.0
52.28 52.29 52.56 52.52 52.48 52.48 60.10 60.06 60.13 60.06 60.07 60.06 60.04 60.03 60.02 60.00 60.02 60.06 60.04 59.98 60.02 60.03 60.03 67.83 113.00 131.99 131.70 131.71 131.70 131.68 131.76 131.92 131.85 131.97 132.06 131.86 131.77 131.84 60.04 60.04 60.05 60.05 61.86 69.61 69.74 70.24 70.67 71.12 71.64 72.02 72.38 72.83 73.23 73.47 73.79 74.05 74.29 74.47 74.65 74.82 74.99 75.13 75.23 75.32 75.40 75.43 75.45 75.43 75.43 75.37 75.33 75.23 75.10 74.98 74.80 74.60 74.37 74.15 73.95 73.69 73.40 73.08 72.69 72.34 71.94 71.48 71.10 70.59 70.10 69.70 66.61 60.04 59.98 60.01 60.03 111.33 151.96 151.82 152.01 152.15 152.14 152.13 152.13 152.09 152.19 151.99 151.77 151.85 60.06 60.06 60.07 60.04 60.07 60.07 60.07 60.07 60.04 60.06 60.08 60.05 60.07 60.03 60.05 60.08 60.05 60.03 60.08 58.79 52.43 52.94 53.21 52.35 52.32 52.31 52.29 52.31 52.28 52.29 52.30 52.24 52.21 50.61 50.35 50.35 50.30 50.24 50.26 50.23 51.21 51.59 51.47 51.49 51.50 51.53 51.53 51.54 51.55 51.58 51.58 52.36 52.66 51.53 51.50 51.42 51.40 51.47 51.57 51.62 51.61 54.88 54.72 55.30 51.85 51.79 57.49 108.87 108.78 108.69 108.69 108.64 108.65 108.61 108.64 108.62 108.63 108.66 108.68 108.67 108.69 108.67 108.70 108.76 101.97 83.04 82.92 82.90 82.95 82.94 82.95 83.00 83.08 83.15 83.19 83.26 83.30 83.38 83.42 83.36 83.31 83.20 83.16 83.07 83.03 82.98 82.92 82.90 82.87 82.87 82.92 83.04 90.73 90.67 90.64 90.60 90.66 90.57 90.58 90.58 90.57 90.54 90.55 90.55 90.54 90.53 90.55 90.55 90.59 90.56 90.57 90.57 90.60 90.58 90.59 90.57 90.56 90.55 90.57 90.56 90.54 90.58 -9999.0
52.31 52.33 52.42 52.51 52.53 52.49 60.78 60.05 60.04 60.05 60.06 60.04 60.01 60.01 60.00 60.01 60.05 60.03 60.06 60.06 60.06 60.03 60.06 71.56 108.92 131.94 131.70 131.73 131.67 131.79 132.64 131.78 131.78 132.02 132.00 131.85 131.69 131.98 63.98 63.78 64.57 65.85 63.26 69.57 69.77 70.28 70.72 71.15 71.64 72.04 72.41 72.80 73.21 73.45 73.80 74.08 74.30 74.48 74.65 74.86 75.01 75.15 75.25 75.31 75.41 75.44 75.45 75.47 75.45 75.41 75.31 75.25 75.14 74.94 74.83 74.62 74.41 74.18 73.97 73.68 73.40 73.09 72.69 72.34 71.93 71.49 71.10 70.61 70.08 69.73 67.56 60.08 60.03 60.01 66.27 128.66 151.93 151.81 151.95 152.10 152.16 152.14 152.14 152.10 152.17 151.99 151.76 152.02 60.06 60.04 60.05 60.06 60.08 60.06 60.09 60.07 60.07 60.06 60.05 60.05 60.07 60.05 60.03 60.07 60.07 60.04 60.06 60.83 52.46 57.61 58.13 59.12 52.32 52.27 52.30 52.29 52.32 52.31 52.25 52.25 52.23 50.32 50.30 50.27 50.23 50.20 50.19 50.14 50.10 51.94 51.44 51.49 51.53 51.50 51.51 51.53 51.53 51.56 51.59 52.06 52.35 51.75 51.46 51.43 51.36 51.43 51.52 51.63 51.62 53.98 55.52 54.62 54.21 51.79 51.80 95.43 108.75 108.74 108.68 108.66 108.64 108.60 108.61 108.62 108.64 108.68 108.67 108.65 108.65 108.68 108.81 108.68 105.09 82.99 82.88 82.89 82.91 82.95 82.98 83.01 83.09 83.18 83.25 83.27 83.35 83.39 83.40 83.34 83.24 83.17 83.12 83.04 82.98 82.91 82.89 82.86 82.85 82.89 83.26 88.85 90.69 90.65 90.66 90.63 90.64 90.60 90.59 90.58 90.58 90.56 90.59 90.55 90.58 90.58 90.58 90.57 90.55 90.58 90.58 90.60 90.60 90.59 90.58 90.57 90.54 90.54 90.55 90.56 90.56 90.57 -9999.0
52.33 52.31 52.50 52.52 52.54 52.52 58.92 60.06 59.99 60.06 60.04 60.05 60.04 60.02 60.03 60.06 60.07 60.04 60.05 60.04 60.03 60.04 60.04 70.10 113.92 131.99 131.74 131.72 131.71 131.73 132.12 131.84 131.77 131.96 131.96 131.86 131.74 132.04 77.22 66.31 66.31 66.31 66.31 69.55 69.73 70.24 70.75 71.15 71.62 72.03 72.42 72.80 73.16 73.46 73.77 74.05 74.28 74.42 74.67 74.84 74.99 75.13 75.25 75.35 75.40 75.42 75.45 75.45 75.42 75.38 75.29 75.23 75.12 74.96 74.80 74.60 74.43 74.17 73.95 73.66 73.37 73.08 72.69 72.33 71.93 71.47 71.06 70.59 70.07 69.70 63.23 60.02 60.01 60.02 60.04 107.83 152.03 151.72 151.94 152.10 152.12 152.13 152.12 152.11 152.10 151.92 151.92 138.87 60.08 60.04 60.06 60.03 60.03 60.05 60.05 60.05 60.06 60.00 60.07 60.04 60.04 60.03 60.02 60.05 60.05 60.03 60.08 60.55 55.15 58.55 60.82 61.90 56.75 52.32 52.29 52.26 52.29 52.27 52.26 52.28 52.25 51.35 50.14 50.17 50.11 50.13 50.09 50.09 50.06 51.99 51.52 51.47 51.48 51.48 51.52 51.49 51.53 51.58 51.56 51.51 51.57 51.50 51.44 51.43 51.41 50.95 51.54 51.59 51.60 55.42 56.32 55.37 51.77 51.78 51.81 71.63 108.76 109.02 108.69 108.66 108.64 108.63 108.64 108.64 108.65 108.66 108.68 108.65 108.63 108.75 108.73 104.48 86.23 82.90 82.85 82.86 82.92 82.96 82.99 83.07 83.10 83.21 83.29 83.34 83.38 83.40 83.35 83.28 83.21 83.17 83.07 83.03 82.97 82.94 82.89 82.85 82.88 82.91 82.97 90.75 90.65 90.63 90.67 90.67 90.64 90.59 90.59 90.59 90.59 90.61 90.63 90.61 90.58 90.57 90.58 90.58 90.61 90.59 90.58 90.60 90.61 90.55 90.56 90.57 90.57 90.55 90.55 90.53 90.53 90.57 -9999.0
52.37 52.32 52.38 53.93 56.57 52.52 55.21 60.21 60.02 60.04 60.00 60.02 60.01 60.05 60.02 60.03 60.04 60.02 60.04 60.04 60.06 60.05 60.05 60.08 99.18 131.99 131.70 131.74 131.73 131.70 131.76 132.21 131.77 132.01 131.95 131.90 131.74 128.59 68.68 66.28 66.30 66.28 66.31 69.54 69.75 70.17 70.71 71.11 71.54 71.97 72.38 72.77 73.12 73.48 73.73 74.01 74.24 74.40 74.65 74.83 74.98 75.11 75.22 75.27 75.32 75.43 75.42 75.39 75.39 75.34 75.28 75.18 75.10 74.94 74.75 74.57 74.35 74.12 73.92 73.62 73.33 73.00 72.65 72.31 71.91 71.47 71.06 70.58 70.05 69.70 68.82 60.08 60.02 60.02 62.96 116.33 152.01 151.76 151.84 152.05 152.09 152.11 152.06 152.10 152.15 151.90 151.77 152.00 60.05 60.05 60.04 60.06 60.02 60.05 60.07 60.06 60.06 60.07 60.05 60.05 60.07 60.03 60.03 60.03 60.11 60.03 60.05 60.10 52.53 57.83 61.31 61.13 56.75 52.33 52.32 52.29 52.33 52.28 52.28 52.28 52.28 52.29 50.10 50.12 50.08 50.12 50.07 50.06 49.98 50.70 51.72 51.44 51.43 51.49 51.47 51.53 51.55 51.51 51.58 51.56 51.57 51.52 51.48 51.45 51.43 50.93 51.52 51.57 51.59 51.66 51.67 54.07 51.76 51.77 51.79 51.85 108.82 108.91 108.66 108.68 108.65 108.67 108.61 108.59 108.61 108.65 108.67 108.66 108.64 108.72 108.75 104.13 82.97 82.86 82.82 82.88 82.91 83.00 83.05 83.09 83.15 83.25 83.30 83.34 83.41 83.39 83.32 83.26 83.17 83.13 83.07 83.00 82.96 82.90 82.87 82.88 82.90 82.99 89.13 90.72 90.64 90.63 90.63 90.63 90.65 90.65 90.62 90.65 90.59 90.62 90.60 90.60 90.59 90.59 90.59 90.61 90.59 90.58 90.59 90.61 90.61 90.57 90.60 90.59 90.52 90.46 90.44 90.50 90.58 90.57 -9999.0
52.36 52.33 52.76 54.60 62.18 56.80 52.58 60.59 60.02 60.10 60.02 60.04 60.05 60.03 60.05 60.04 60.05 60.05 60.05 60.03 60.04 60.04 60.05 60.07 91.64 132.09 131.71 131.70 131.74 131.66 131.67 131.70 131.74 131.90 132.08 131.89 131.73 129.53 73.80 66.28 66.31 66.30 66.25 69.53 69.73 70.09 70.62 71.06 71.48 71.92 72.32 72.68 73.08 73.38 73.64 73.91 74.20 74.35 74.55 74.76 74.85 75.05 75.13 75.24 75.27 75.34 75.34 75.34 75.32 75.30 75.22 75.13 75.04 74.88 74.68 74.54 74.30 74.08 73.82 73.61 73.26 72.95 72.63 72.26 71.84 71.42 71.02 70.50 70.02 69.66 64.27 60.01 60.00 60.03 60.03 101.48 152.06 151.80 151.82 152.10 152.10 152.09 152.09 152.12 152.12 151.87 151.76 152.08 60.04 60.08 60.06 60.04 60.02 60.05 60.04 60.05 60.04 60.05 60.04 60.04 60.07 60.04 60.07 60.04 60.06 60.00 60.03 60.10 55.74 58.65 60.90 60.57 56.29 52.30 52.31 52.30 52.34 52.28 52.28 52.29 52.27 52.26 50.38 50.07 49.99 50.01 49.96 49.95 49.92 49.89 52.15 51.44 51.43 51.49 51.45 51.52 51.54 51.55 51.56 51.56 51.53 51.52 51.50 51.43 51.41 51.38 51.42 51.55 51.59 51.66 51.65 51.69 51.74 51.75 51.77 51.83 85.25 108.74 108.78 108.69 108.66 108.62 108.57 108.59 108.60 108.63 108.66 108.66 108.74 108.70 108.85 84.03 82.89 82.85 82.83 82.87 82.95 83.01 83.04 83.12 83.22 83.24 83.33 83.39 83.43 83.40 83.32 83.21 83.13 83.10 83.04 82.97 82.94 82.90 82.88 82.91 82.92 82.98 90.73 90.66 90.63 90.65 90.63 90.63 90.62 90.64 90.63 90.65 71.45 90.62 90.65 90.62 90.62 90.61 90.63 90.60 90.63 90.63 90.61 90.61 90.56 90.60 90.60 90.53 90.47 90.44 90.49 90.50 90.53 90.57 -9999.0
52.34 52.32 52.49 61.39 65.46 63.34 54.02 57.70 60.11 60.05 60.07 60.08 60.04 60.07 60.03 60.03 60.04 60.06 60.04 60.04 60.04 60.04 60.07 60.09 69.28 132.06 131.72 131.71 131.73 131.70 131.67 131.69 131.70 132.00 132.11 131.92 131.69 131.84 60.05 60.06 61.48 60.04 60.07 68.02 69.67 70.02 70.49 70.99 71.40 71.85 72.25 72.60 72.94 73.28 73.57 73.85 74.11 74.29 74.44 74.67 74.84 74.96 75.08 75.13 75.21 75.25 75.27 75.27 75.24 75.21 75.15 75.03 74.92 74.81 74.63 74.42 74.23 73.98 73.73 73.49 73.24 72.82 72.55 72.18 71.69 71.33 70.92 70.40 69.96 69.65 64.34 60.01 60.01 60.03 60.04 118.65 151.95 151.77 151.92 152.13 152.17 152.16 152.14 152.17 152.11 151.91 151.74 107.82 60.05 60.08 60.05 60.03 60.03 60.05 60.06 60.06 60.07 60.06 60.08 60.06 60.04 60.05 60.05 60.04 60.06 60.06 60.04 60.08 60.13 52.41 56.06 52.41 52.35 52.32 52.33 52.31 52.34 52.29 52.30 52.29 52.28 52.26 51.77 49.97 49.98 49.92 49.93 49.89 49.85 49.79 51.50 51.48 51.46 51.47 51.52 51.52 51.49 51.57 51.55 51.55 51.53 51.52 51.48 51.47 51.41 51.41 51.38 51.54 51.59 51.59 51.61 51.90 51.69 51.75 51.76 51.81 103.62 108.73 108.74 108.67 108.68 108.63 108.59 108.61 108.59 108.65 108.66 108.68 108.80 108.74 102.05 83.12 82.88 82.83 82.86 82.91 83.00 83.06 83.06 83.14 83.22 83.29 83.38 83.42 83.39 83.33 83.28 83.18 83.12 83.10 82.97 82.97 82.91 82.90 82.95 82.92 83.44 89.63 90.69 90.66 90.61 90.62 90.65 90.64 90.65 90.66 90.64 90.63 90.63 90.65 90.65 90.65 90.62 90.61 90.62 90.64 90.65 90.57 90.57 90.59 90.63 90.64 90.60 90.51 90.51 90.56 90.54 90.52 90.45 90.55 -9999.0
52.32 52.33 56.62 55.32 64.48 59.75 61.23 54.29 60.55 60.03 60.08 60.07 60.04 60.05 60.04 60.02 60.03 60.06 60.04 60.05 60.04 60.06 60.06 60.04 60.09 114.27 131.72 131.70 131.74 131.72 131.71 131.69 131.75 131.99 131.96 131.89 131.71 131.75 88.25 60.03 60.05 60.03 60.02 63.62 69.61 69.94 70.42 70.91 71.32 71.72 72.15 72.50 72.84 73.16 73.50 73.71 73.96 74.20 74.33 74.54 74.72 74.83 74.96 75.05 75.10 75.16 75.19 75.17 75.14 75.07 75.02 74.97 74.82 74.69 74.49 74.34 74.11 73.88 73.65 73.38 73.12 72.71 72.39 72.06 71.60 71.21 70.79 70.30 69.83 69.61 60.12 60.02 60.04 60.03 60.04 98.80 152.13 151.73 151.83 152.09 152.08 152.15 152.14 152.08 152.03 151.87 151.84 145.06 60.06 60.08 60.08 60.02 60.06 60.05 60.05 60.05 60.06 60.07 60.08 60.07 60.05 60.06 60.10 60.08 60.07 60.08 60.09 60.08 60.10 52.53 52.44 52.39 52.41 52.30 52.35 52.29 52.32 52.29 52.28 52.32 52.27 52.27 52.33 49.89 49.85 49.84 49.84 49.81 49.79 49.71 50.01 51.76 51.44 51.48 51.47 51.49 51.50 51.52 51.52 51.54 51.51 51.50 51.46 51.44 51.46 51.39 51.37 51.52 51.52 51.59 51.61 54.95 55.21 54.59 53.50 51.77 76.45 108.82 108.71 108.70 108.71 108.70 108.66 108.66 108.66 108.68 108.67 108.75 108.73 108.87 83.69 82.91 82.87 82.86 82.88 82.94 83.02 83.05 83.10 83.15 83.23 83.35 83.37 83.43 83.35 83.31 83.21 83.15 83.10 83.03 82.98 82.94 82.93 82.88 82.95 82.98 83.00 90.70 90.66 90.65 90.59 90.57 90.60 90.63 90.66 90.64 90.65 90.64 90.66 90.66 90.67 90.62 90.63 90.64 90.61 90.62 90.55 90.63 90.68 90.83 90.67 90.58 90.52 90.55 90.59 90.58 90.55 90.55 90.57 90.63 -9999.0
52.27 52.30 53.86 59.14 62.83 62.53 61.19 54.85 60.11 60.08 59.97 60.05 60.05 60.06 60.07 60.06 60.06 60.07 60.04 60.04 60.06 60.05 60.03 60.03 60.07 88.63 131.85 131.73 131.75 131.77 131.84 131.90 131.96 132.00 131.98 131.99 131.73 131.72 132.10 60.05 60.05 60.05 60.03 60.18 69.58 69.85 70.24 70.75 71.21 71.60 71.99 72.37 72.71 73.01 73.32 73.59 73.86 74.09 74.23 74.41 74.56 74.71 74.82 74.90 74.98 75.04 75.06 75.03 75.02 74.94 74.90 74.82 74.69 74.51 74.41 74.19 73.97 73.80 73.51 73.21 72.97 72.63 72.30 71.93 71.48 71.12 70.70 70.16 69.74 69.62 60.11 60.03 60.02 60.04 60.03 106.16 152.08 151.78 151.88 152.05 152.02 152.08 152.11 152.11 152.01 151.85 151.86 98.93 60.08 60.04 60.04 60.03 60.03 60.02 60.07 60.07 60.06 60.09 60.06 60.08 60.06 60.06 60.06 60.03 60.07 60.04 60.06 60.07 60.07 57.34 52.40 52.42 52.39 52.34 52.33 52.32 52.33 52.31 52.28 52.30 52.29 52.30 52.28 50.67 49.80 49.80 49.77 49.73 49.68 49.62 49.61 51.99 51.43 51.46 51.45 51.46 51.49 51.53 51.50 51.55 51.52 51.49 51.47 51.41 51.46 51.41 51.36 51.40 51.54 51.59 52.36 54.85 56.07 55.56 55.47 51.76 51.80 108.97 108.72 108.72 108.73 108.69 108.69 108.69 108.71 108.71 108.69 108.73 108.77 105.65 82.99 82.89 82.86 82.90 82.93 82.94 83.05 83.06 83.15 83.19 83.28 83.33 83.38 83.39 83.30 83.23 83.16 83.11 83.09 82.98 82.97 82.90 82.89 82.95 82.96 83.02 88.54 90.70 90.68 90.66 90.57 90.57 90.58 90.60 90.62 90.62 90.63 90.65 90.65 90.67 90.68 90.64 90.64 90.61 90.59 90.53 90.60 90.64 90.95 91.20 90.83 90.71 90.64 90.67 90.61 90.54 90.57 90.65 90.64 90.58 -9999.0
52.30 52.28 52.29 57.12 59.91 59.38 59.93 52.60 56.80 60.05 59.99 59.99 60.04 60.03 60.03 60.03 60.03 60.04 60.04 60.03 60.07 60.03 60.05 60.04 60.04 78.38 131.95 131.72 131.78 132.00 131.96 132.00 128.14 132.00 132.00 131.99 131.82 131.71 132.07 60.03 60.02 60.03 60.02 60.08 67.12 69.72 70.12 70.55 71.04 71.43 71.81 72.21 72.55 72.87 73.18 73.47 73.70 73.93 74.14 74.25 74.42 74.55 74.67 74.76 74.84 74.88 74.93 74.90 74.89 74.80 74.73 74.67 74.55 74.39 74.26 74.02 73.84 73.65 73.38 73.08 72.79 72.50 72.14 71.77 71.33 70.93 70.50 70.00 69.67 62.91 60.08 60.03 60.02 60.05 60.86 112.76 152.14 151.72 151.91 152.19 152.16 152.20 152.12 152.17 152.04 151.80 151.84 60.07 60.08 60.08 60.07 60.04 60.03 60.04 60.04 60.04 60.06 60.06 60.09 60.05 60.05 60.09 60.03 60.09 60.05 60.05 60.08 60.08 60.19 60.72 52.35 52.38 52.39 52.41 52.31 52.31 52.31 52.34 53.32 52.31 52.29 56.76 57.87 57.47 49.71 49.71 49.66 49.64 49.61 49.57 49.57 50.65 51.41 51.41 51.43 51.48 51.51 51.49 51.52 51.55 51.51 51.50 51.48 51.46 51.45 51.43 51.40 51.40 51.53 51.55 51.60 54.22 55.15 52.71 53.40 51.75 51.80 91.94 108.74 108.72 108.73 108.71 108.72 108.72 108.72 108.71 108.76 108.75 100.35 83.57 82.94 82.85 82.86 82.90 82.96 83.01 83.07 83.09 83.17 83.23 83.32 83.37 83.40 83.35 83.29 83.19 83.14 83.09 83.04 82.96 82.94 82.89 82.89 82.91 82.99 87.99 90.72 90.71 90.65 90.62 78.58 90.55 90.58 90.54 90.60 90.64 90.63 90.65 90.66 90.65 90.69 90.65 90.65 90.60 90.57 90.61 90.64 90.75 91.07 91.62 91.45 91.40 91.13 90.71 90.65 90.65 90.63 90.61 90.66 90.57 -9999.0
52.31 52.26 52.30 52.29 56.32 58.42 58.35 54.79 53.45 60.06 60.03 60.01 60.03 60.04 60.05 60.05 60.04 60.04 60.07 60.06 60.07 60.07 60.06 60.04 60.04 60.06 107.88 131.72 131.71 132.00 132.00 131.98 131.99 131.98 131.93 131.97 131.87 131.70 131.96 100.55 60.04 60.04 60.03 60.03 62.54 69.63 69.96 70.38 70.88 71.26 71.66 72.07 72.39 72.72 72.99 73.27 73.54 73.73 73.93 74.09 74.26 74.39 74.50 74.59 74.66 74.71 74.76 74.72 74.71 74.66 74.56 74.48 74.38 74.24 74.04 73.88 73.69 73.44 73.23 72.88 72.63 72.36 71.95 71.52 71.22 70.77 70.33 69.87 69.64 63.87 60.03 60.02 60.04 60.04 60.02 111.59 152.04 151.74 151.95 152.18 152.12 152.15 152.13 152.13 152.07 151.75 151.87 71.05 60.03 60.05 60.04 60.06 60.05 60.07 60.06 60.08 60.05 60.07 60.06 60.06 60.06 60.07 60.06 60.05 60.06 60.11 60.15 60.07 60.07 60.24 53.99 52.42 52.34 52.32 52.45 52.35 52.34 52.33 56.92 55.97 54.12 59.08 59.33 59.69 54.11 52.29 49.58 49.61 49.56 49.51 49.49 49.45 51.58 51.38 51.43 51.43 51.47 51.48 51.51 51.48 51.48 51.49 51.49 51.48 51.45 51.41 51.37 51.35 52.02 51.52 51.54 51.59 51.65 51.69 51.74 51.79 51.81 64.60 108.86 108.74 108.72 108.70 108.73 108.71 108.72 108.75 108.86 108.76 100.00 82.95 82.90 82.88 82.91 82.95 82.98 83.06 83.09 83.16 83.19 83.24 83.35 83.38 83.39 83.33 83.23 83.16 83.10 83.07 83.04 82.95 82.90 82.91 82.89 82.89 83.01 88.68 90.74 90.65 90.62 90.58 90.56 90.54 90.54 90.57 90.59 90.61 90.62 90.64 90.63 90.68 90.96 90.65 90.60 90.65 90.68 90.68 90.64 90.77 91.35 91.93 91.84 91.66 91.54 90.97 90.82 90.65 90.61 90.60 90.59 90.62 -9999.0
52.38 52.29 52.31 52.33 52.28 52.58 52.62 52.59 52.56 59.34 60.04 60.12 60.05 60.02 60.02 60.07 60.07 60.09 60.05 60.01 60.08 60.05 60.07 60.06 60.09 60.08 97.07 131.76 131.72 131.85 131.95 131.91 131.94 131.99 131.91 131.97 131.96 131.73 131.84 132.13 60.04 60.05 60.00 60.03 60.14 69.59 69.81 70.23 70.65 71.12 71.48 71.84 72.18 72.50 72.81 73.09 73.34 73.55 73.76 73.92 74.08 74.20 74.28 74.41 74.46 74.52 74.55 74.56 74.53 74.49 74.37 74.28 74.19 74.04 73.82 73.71 73.49 73.25 73.01 72.72 72.42 72.16 71.75 71.33 71.01 70.55 70.06 69.72 69.58 62.24 60.03 60.04 60.03 60.04 61.26 124.22 152.06 151.76 151.93 152.14 152.12 152.14 152.14 152.20 152.02 151.81 140.20 60.04 60.05 60.06 60.07 60.07 60.04 60.07 60.04 60.05 60.04 60.04 60.05 60.05 60.06 60.08 60.08 60.21 60.24 60.26 60.26 60.14 60.07 60.06 59.19 52.32 52.29 52.30 52.72 52.59 52.32 55.05 57.69 57.44 58.64 59.83 60.08 60.53 58.19 55.35 49.52 49.48 49.49 49.46 49.39 49.39 51.20 51.39 51.41 51.45 51.44 51.46 51.49 51.51 51.51 51.47 51.48 51.48 51.45 51.40 54.85 53.46 57.90 51.49 51.55 51.60 51.59 51.66 51.70 51.72 51.76 51.77 108.29 108.75 108.75 108.75 108.75 108.73 108.70 108.76 108.71 108.91 84.89 82.91 82.88 82.90 82.92 82.93 83.02 83.08 83.13 83.18 83.26 83.31 83.37 83.39 83.36 83.26 83.21 83.14 83.09 83.07 82.97 82.91 82.86 82.88 82.93 82.95 83.04 90.75 90.71 90.62 90.61 90.57 90.55 90.54 90.55 90.57 90.61 90.61 90.59 90.65 90.64 90.64 91.05 91.23 91.04 90.85 90.65 90.64 90.57 91.20 91.62 91.35 91.07 91.30 90.87 90.73 90.64 90.62 90.60 90.60 90.61 90.59 -9999.0
52.47 52.30 52.30 52.30 52.30 52.45 52.63 52.58 52.59 55.96 60.01 60.05 60.06 60.07 60.06 60.07 60.04 60.04 60.06 60.04 60.07 60.08 60.07 60.10 60.05 60.06 60.06 128.16 131.72 131.72 132.01 131.99 132.02 131.99 132.01 131.91 132.00 131.75 131.69 132.08 60.07 60.06 60.02 60.01 60.06 66.02 69.67 70.00 70.39 70.87 71.25 71.57 71.94 72.27 72.60 72.88 73.09 73.33 73.56 73.69 73.86 73.98 74.09 74.19 74.25 74.27 74.32 74.31 74.30 74.26 74.19 74.04 73.92 73.80 73.65 73.51 73.25 73.07 72.78 72.52 72.19 71.84 71.48 71.11 70.76 70.37 69.85 69.61 63.08 60.04 60.00 60.02 60.06 60.05 60.05 111.01 152.08 151.72 151.76 151.85 151.82 151.88 151.86 151.90 151.89 151.94 152.04 60.06 60.05 60.03 60.04 60.04 60.06 60.03 60.05 60.05 60.06 60.06 60.05 60.12 60.20 60.26 60.28 60.35 60.32 60.29 60.25 60.18 60.05 60.06 60.72 52.33 52.30 52.30 52.29 52.34 52.33 55.52 57.53 58.35 58.87 60.66 55.25 60.47 59.32 56.78 49.67 49.43 49.41 49.33 49.32 49.32 51.68 51.42 51.41 51.38 51.41 51.45 51.45 51.48 51.49 51.48 51.48 51.42 51.43 51.42 55.59 53.93 52.98 51.50 51.54 51.60 51.59 51.67 51.69 51.73 51.73 51.79 80.13 108.86 108.47 108.63 108.84 108.75 108.74 108.82 108.80 107.09 83.13 83.07 82.87 82.92 82.93 83.01 83.04 83.11 83.14 83.21 83.25 83.34 83.42 83.41 83.32 83.23 83.15 83.11 83.09 83.03 82.95 82.89 82.86 82.89 82.93 82.98 90.14 90.72 90.68 90.64 90.61 90.56 90.54 90.57 90.57 90.56 90.59 90.63 90.63 90.56 90.59 90.97 91.70 91.97 91.73 91.30 90.89 90.78 90.83 91.05 90.86 90.94 90.70 90.64 90.62 90.62 90.57 90.58 90.57 90.56 90.55 90.53 -9999.0
52.49 52.32 52.30 52.29 52.31 52.34 52.62 52.57 52.57 52.57 60.03 60.04 60.08 60.04 60.06 60.07 60.07 60.04 60.07 60.05 60.04 60.05 60.07 60.07 60.03 60.04 60.06 102.24 131.72 131.73 131.93 132.04 132.02 131.95 131.94 131.90 131.89 131.89 131.71 131.90 114.05 60.06 60.05 60.04 60.03 61.39 69.63 69.80 70.17 70.57 70.97 71.31 71.66 72.01 72.35 72.62 72.85 73.10 73.28 73.49 73.63 73.79 73.86 73.92 74.01 74.02 74.08 74.09 74.05 74.00 73.93 73.87 73.75 73.61 73.36 73.25 73.05 72.75 72.53 72.31 71.94 71.57 71.30 70.90 70.47 70.09 69.72 69.59 60.09 60.01 60.03 60.02 60.04 60.04 60.04 124.75 151.83 151.69 151.76 151.79 151.77 151.80 151.81 151.79 151.79 151.81 152.09 60.05 60.04 60.07 60.06 60.05 60.09 60.07 60.06 60.06 60.06 60.02 60.08 60.13 60.28 60.29 60.32 60.31 60.34 60.28 60.23 60.22 60.08 60.10 60.20 55.59 52.31 52.33 52.33 52.36 52.33 53.82 57.92 59.65 61.17 61.15 61.68 61.09 60.50 60.15 53.32 49.33 49.34 49.33 49.20 49.23 51.41 51.47 51.41 52.82 53.50 51.41 51.45 51.43 51.46 51.51 51.46 51.47 51.46 51.40 51.40 51.36 51.31 51.49 51.54 51.58 51.58 51.66 51.64 51.71 51.76 51.76 51.98 108.82 107.64 107.59 107.53 108.82 108.85 108.75 107.67 83.08 83.52 83.10 83.09 83.05 82.95 83.03 83.10 83.11 83.19 83.23 83.31 83.39 83.39 83.34 83.27 83.18 83.13 83.09 83.06 82.99 82.91 82.86 82.86 82.88 82.94 89.08 90.72 90.70 90.68 90.62 90.58 90.59 90.55 90.78 90.93 90.74 90.56 90.56 90.59 90.63 90.82 91.26 91.87 92.00 91.78 91.53 91.13 90.93 90.71 90.70 90.62 90.61 90.63 90.62 90.58 90.56 90.53 90.54 90.61 90.50 90.48 90.45 -9999.0
52.57 52.35 52.32 52.27 52.32 52.32 52.52 52.59 52.59 52.79 60.28 60.06 60.04 60.07 60.05 60.05 60.07 60.05 60.04 60.05 60.05 60.05 60.07 60.05 60.01 60.05 60.03 76.13 131.90 131.73 131.79 131.97 131.91 131.97 131.98 131.99 132.02 131.90 131.76 131.72 132.06 60.06 60.06 60.04 60.06 60.07 69.52 69.68 69.90 70.34 70.68 71.03 71.43 71.72 72.03 72.35 72.65 72.82 73.00 73.22 73.36 73.52 73.59 73.70 73.78 73.81 73.82 73.86 73.82 73.78 73.69 73.62 73.47 73.38 73.15 72.97 72.78 72.53 72.28 72.05 71.70 71.29 71.03 70.64 70.21 69.83 69.61 60.17 60.02 60.02 60.03 60.02 60.02 60.01 60.03 120.08 151.98 151.76 151.71 151.76 151.79 152.11 152.26 151.86 151.78 151.77 133.11 60.04 60.05 60.03 60.08 60.06 60.08 60.05 60.06 60.02 60.04 60.08 60.07 60.09 60.26 60.34 60.30 60.26 60.23 60.18 60.17 60.12 60.06 60.11 60.08 60.95 52.32 52.29 52.32 52.31 52.31 53.12 56.93 59.24 61.09 61.30 61.73 60.87 59.71 58.62 50.51 49.26 49.25 49.25 49.20 49.16 49.53 51.80 56.92 57.99 57.19 51.40 51.45 51.45 51.48 51.48 51.48 51.45 51.44 51.42 51.38 51.37 51.33 51.40 51.48 52.06 55.90 55.13 54.19 54.98 54.14 51.75 73.24 108.74 107.36 107.37 108.66 108.87 108.98 108.81 95.14 53.44 68.87 83.81 83.59 83.26 83.19 83.18 83.12 83.16 83.23 83.27 83.34 83.41 83.37 83.29 83.24 83.17 83.13 83.08 83.01 82.95 82.85 82.84 82.88 82.87 83.00 89.57 90.69 90.69 90.67 90.61 90.60 90.57 90.60 90.93 91.50 91.37 90.79 90.65 90.69 90.71 91.00 91.49 91.52 91.22 90.84 90.83 90.72 90.65 90.64 90.61 90.63 90.65 90.62 90.60 90.52 90.55 90.58 90.55 90.54 90.47 90.50 90.50 -9999.0
52.56 52.41 52.37 52.28 52.31 52.29 52.45 52.57 52.57 52.56 60.75 60.04 60.06 60.06 60.07 60.07 60.05 60.04 60.02 60.03 60.05 60.03 60.03 60.06 60.02 60.03 60.10 60.08 122.52 131.73 131.72 131.90 131.99 132.06 131.99 132.01 132.02 131.91 131.82 131.71 131.94 70.13 60.04 60.06 60.05 60.09 60.11 69.57 69.70 70.02 70.37 70.74 71.11 71.45 71.70 72.03 72.31 72.54 72.74 72.94 73.13 73.23 73.34 73.43 73.50 73.55 73.55 73.57 73.57 73.48 73.43 73.33 73.19 73.08 72.87 72.66 72.50 72.28 71.95 71.70 71.34 71.07 70.68 70.35 69.90 69.67 69.53 60.64 60.00 60.02 60.03 60.01 60.02 60.02 65.46 121.09 151.83 151.74 151.71 151.75 151.76 152.29 152.36 152.11 151.77 151.77 126.66 60.08 60.07 60.04 60.04 60.06 60.03 60.05 60.03 60.01 60.05 60.06 60.05 60.10 60.24 60.28 60.22 60.16 60.10 60.09 60.06 60.06 60.05 60.09 60.11 60.59 52.31 52.33 52.32 52.32 52.33 52.34 52.57 57.05 61.06 61.75 61.17 59.50 58.70 58.93 49.21 49.19 49.24 49.21 49.63 51.49 51.41 53.09 57.33 51.40 51.40 51.41 51.42 51.41 51.45 51.48 51.51 51.47 51.43 51.44 51.41 51.41 51.32 51.31 51.47 52.05 56.10 54.85 54.02 51.75 51.68 51.71 51.74 108.48 107.81 107.34 107.54 107.77 108.85 109.00 63.85 51.78 51.80 58.10 70.85 83.79 83.57 83.21 83.45 83.31 83.29 83.28 83.37 83.37 83.33 83.30 83.21 83.18 83.11 83.05 83.00 82.90 82.86 82.89 82.93 82.95 83.91 90.78 90.72 90.67 90.64 90.62 90.60 90.61 90.74 91.15 91.75 91.93 91.48 91.45 91.01 90.83 90.96 90.90 90.77 90.69 90.65 90.65 90.60 90.63 90.62 90.63 90.66 90.60 90.57 90.58 90.56 90.58 90.56 90.52 90.51 90.54 90.56 90.56 -9999.0
52.54 52.49 52.32 52.30 52.30 52.30 52.36 52.55 52.55 52.58 59.50 60.32 60.08 60.11 60.05 60.05 60.06 60.04 60.07 60.06 60.05 60.03 60.03 60.04 60.05 60.08 60.08 60.10 64.68 131.76 131.74 131.81 132.00 132.06 132.01 131.94 132.02 132.00 131.89 131.76 131.77 130.53 62.42 60.08 60.05 60.05 60.06 64.62 69.61 69.78 70.13 70.41 70.79 71.15 71.39 71.67 71.98 72.22 72.46 72.63 72.75 72.88 73.06 73.13 73.18 73.26 73.28 73.24 73.26 73.16 73.15 73.00 72.88 72.73 72.53 72.35 72.18 71.93 71.63 71.32 71.06 70.75 70.35 70.03 69.73 69.48 61.71 60.06 60.02 60.02 60.05 60.03 60.02 60.03 60.01 126.91 151.90 151.72 151.76 151.74 151.76 152.04 152.07 151.77 151.76 151.80 100.30 60.00 60.06 60.04 60.04 60.05 60.04 60.06 60.05 60.05 60.05 60.05 60.08 60.11 60.10 60.07 60.08 60.07 60.09 60.08 60.08 60.07 60.08 60.09 60.09 60.00 57.07 52.34 52.32 52.51 52.30 53.61 54.48 56.56 59.44 60.15 60.12 58.97 58.76 57.80 49.24 50.77 52.29 51.66 52.15 52.29 52.30 52.27 51.33 51.37 51.38 51.38 51.39 51.44 51.49 51.46 51.50 51.49 51.50 51.46 51.43 51.39 51.35 51.30 51.52 51.53 52.35 54.96 55.01 51.66 51.64 51.68 51.73 86.06 108.38 107.35 107.35 107.39 108.91 99.73 53.34 51.78 51.79 51.78 51.79 51.80 65.24 83.75 83.60 83.42 83.52 83.42 83.38 83.38 83.33 83.24 83.16 83.15 83.09 83.01 82.92 82.89 82.91 82.92 82.93 82.99 90.79 90.70 90.68 90.64 90.65 90.64 90.58 90.63 90.86 91.70 91.68 91.66 91.18 91.08 90.90 90.81 90.75 90.63 90.63 90.58 90.56 90.57 90.56 90.63 90.67 90.64 90.59 90.57 90.59 90.59 90.57 90.55 90.56 90.57 90.58 90.59 90.57 90.58 -9999.0
52.88 52.64 52.70 52.31 52.28 52.31 52.34 52.54 52.54 52.58 54.45 60.51 60.08 60.08 60.08 60.05 60.06 60.06 60.05 60.03 60.04 60.07 60.05 60.06 60.07 60.07 60.09 60.09 60.09 132.02 131.74 131.73 131.89 131.94 131.94 131.99 132.01 131.93 131.96 131.82 131.70 131.89 87.04 60.05 60.06 60.04 60.03 60.05 64.46 69.60 69.82 70.11 70.42 70.81 71.09 71.33 71.59 71.83 72.07 72.28 72.44 72.57 72.67 72.71 72.80 72.90 72.92 72.86 72.88 72.82 72.70 72.62 72.53 72.42 72.24 72.03 71.70 71.58 71.30 71.02 70.81 70.38 70.02 69.73 69.62 63.79 60.04 60.06 60.06 60.05 60.06 60.04 60.04 60.03 60.02 94.70 152.01 151.78 151.76 151.73 151.75 151.75 151.75 151.75 151.82 130.00 60.07 60.04 60.07 60.05 60.05 60.05 60.05 60.05 60.06 60.06 60.15 60.17 60.22 60.19 60.11 60.09 60.11 60.18 60.18 60.14 60.10 60.11 60.18 60.16 59.83 59.62 55.81 52.35 52.32 54.52 56.82 56.28 56.25 56.15 57.90 57.41 58.57 59.77 52.31 55.20 52.33 52.27 52.24 52.26 52.25 52.25 52.26 52.27 51.89 51.35 51.37 51.38 51.41 51.43 51.46 51.49 51.49 51.46 51.48 51.40 51.39 51.37 51.39 51.33 51.38 51.50 51.52 52.23 53.02 51.59 51.65 51.64 51.68 63.39 108.82 107.46 107.37 107.47 108.86 68.09 51.77 51.76 51.79 51.78 51.83 51.81 52.66 61.36 72.17 83.16 83.64 83.43 83.51 83.42 83.27 83.19 83.20 83.11 83.03 82.98 82.91 82.88 82.90 82.92 82.99 83.09 90.76 90.68 90.69 90.63 90.59 90.59 90.57 90.89 91.38 91.27 90.89 90.93 90.62 90.64 90.65 90.62 90.61 90.60 90.56 90.55 90.55 90.60 90.62 90.62 90.62 90.59 90.65 90.63 90.59 90.60 90.55 90.52 90.57 90.58 90.62 90.61 90.61 90.77 -9999.0
59.91 57.18 61.56 56.26 52.30 52.30 52.37 52.46 52.53 52.56 52.51 60.86 60.10 60.05 60.10 60.08 60.10 60.09 60.03 60.04 60.08 60.03 60.05 60.07 60.07 60.06 60.09 60.09 60.11 75.28 131.92 131.77 131.78 132.01 132.02 132.03 131.94 131.91 131.86 131.92 131.71 131.75 124.91 60.05 60.08 60.03 60.02 60.05 60.02 64.03 69.61 69.82 70.08 70.34 70.76 71.01 71.28 71.46 71.65 71.90 72.06 72.16 72.34 72.41 72.44 72.50 72.55 72.54 72.49 72.49 72.40 72.28 72.21 71.96 71.81 71.63 71.38 71.15 70.94 70.63 70.30 70.01 69.73 69.62 64.05 60.09 60.06 60.05 60.04 60.08 60.04 60.06 60.04 60.05 60.03 61.78 106.04 84.91 152.03 151.80 151.80 151.82 151.77 151.78 151.83 106.64 60.05 60.03 60.05 60.05 60.07 60.07 60.08 60.10 60.19 60.22 60.28 60.34 60.25 60.20 60.07 60.16 60.24 60.27 60.26 60.31 60.29 60.18 60.18 60.12 59.87 59.17 56.67 53.49 52.31 52.31 56.19 56.13 56.21 56.29 56.11 56.09 58.43 56.63 52.39 52.27 52.27 52.27 52.28 52.29 52.28 52.29 52.29 52.25 52.36 51.33 51.37 51.38 51.44 51.42 52.14 52.26 51.48 51.45 51.47 51.43 51.43 51.39 51.38 51.41 51.33 51.51 51.51 51.56 53.08 52.45 51.61 54.59 51.66 51.68 99.06 108.00 107.42 108.33 89.14 51.71 51.74 51.76 51.77 51.82 51.78 51.77 51.79 51.79 51.79 56.37 71.84 80.98 83.58 83.38 83.33 83.24 83.18 83.09 83.01 82.93 82.89 82.87 82.91 82.92 83.00 90.57 90.74 90.63 90.65 90.60 90.58 90.56 90.62 90.89 90.86 90.81 90.63 90.59 90.58 90.61 90.59 90.59 90.51 90.57 90.55 90.59 90.59 90.58 90.59 90.58 90.62 90.64 90.65 90.66 90.60 90.61 90.59 90.61 90.66 90.66 90.66 90.77 90.69 90.72 -9999.0
65.04 62.66 62.13 60.24 52.26 52.45 52.99 52.41 52.54 52.55 52.56 58.31 60.10 60.02 60.10 60.10 60.06 60.04 60.06 60.07 60.05 60.10 60.06 60.07 60.08 60.08 60.06 60.08 60.05 60.09 117.59 131.74 131.75 131.85 131.96 131.94 131.94 131.91 131.90 131.90 131.82 131.75 131.92 116.11 60.05 60.06 60.01 60.03 60.03 60.05 66.97 69.62 69.77 69.98 70.34 70.60 70.87 71.09 71.26 71.47 71.60 71.73 71.88 72.06 72.04 72.10 72.15 72.08 72.10 72.02 72.00 71.89 71.78 71.56 71.38 71.24 71.01 70.78 70.58 70.27 69.93 69.72 69.59 64.63 60.13 60.07 60.07 60.04 60.08 60.06 60.07 60.05 60.04 60.05 60.05 60.04 60.07 78.07 147.07 151.79 151.80 151.81 151.79 151.77 151.77 126.18 60.08 60.05 60.03 60.06 60.08 60.06 60.09 60.22 60.28 60.31 60.31 60.29 60.27 60.22 60.09 60.08 60.27 60.26 60.26 60.26 60.26 60.25 60.21 60.14 60.15 58.71 58.56 52.40 52.32 52.32 55.71 56.14 56.13 56.21 56.10 56.11 56.84 52.28 52.28 52.26 52.24 52.29 52.29 52.29 52.29 52.28 52.29 52.28 52.29 51.50 51.36 51.43 51.40 51.40 52.01 52.74 52.22 51.43 51.46 51.42 51.44 51.41 51.59 52.17 51.37 51.47 51.49 51.54 56.04 55.66 55.49 56.24 53.95 51.66 76.72 108.35 107.73 108.85 63.98 51.72 51.70 51.74 51.74 51.76 51.76 51.78 51.74 51.77 51.79 51.80 51.80 60.63 72.52 83.79 83.53 83.31 83.51 83.11 83.00 82.94 82.94 82.92 82.91 82.98 86.02 90.75 90.71 90.60 90.63 90.59 90.65 90.65 90.66 90.60 90.58 90.56 90.58 90.58 90.53 90.53 90.55 90.47 90.47 90.50 90.56 90.57 90.57 90.52 90.58 90.59 90.64 90.63 90.62 90.63 90.61 90.74 90.67 90.78 90.68 90.70 90.69 90.78 90.75 90.36 -9999.0
65.06 64.27 61.24 59.86 52.33 52.27 52.31 52.35 52.54 52.57 52.59 53.33 60.39 60.09 60.08 60.11 60.10 60.06 60.08 60.04 60.05 60.07 60.09 60.10 60.06 60.05 60.06 60.09 60.09 60.07 60.43 131.89 131.74 131.75 131.91 131.97 131.97 131.94 131.91 131.83 131.83 131.70 131.75 132.00 72.24 60.03 60.02 60.00 59.99 60.01 60.04 67.72 69.59 69.71 69.96 70.20 70.45 70.70 70.87 71.05 71.22 71.34 71.46 71.58 71.62 71.65 71.74 71.70 71.65 71.62 71.56 71.43 71.34 71.21 71.02 70.87 70.66 70.34 70.19 69.86 69.65 69.59 61.59 60.04 60.05 60.07 60.08 60.06 60.05 60.05 60.03 60.05 60.04 60.03 60.05 60.05 60.03 60.01 147.61 151.92 151.91 151.81 151.79 151.80 151.79 79.63 60.04 60.07 60.02 60.05 60.07 60.05 60.11 60.21 60.28 60.33 60.33 60.32 60.30 60.23 60.10 60.07 60.21 60.22 60.25 60.24 60.24 60.22 60.21 60.18 60.08 58.72 58.07 53.76 52.34 52.29 56.89 56.15 56.09 56.28 56.18 56.10 56.38 53.16 52.29 52.28 52.25 52.24 52.27 52.29 52.29 52.30 52.29 52.27 52.26 52.02 51.36 51.37 51.40 51.39 51.40 52.98 52.44 51.47 51.51 51.45 51.44 51.41 51.51 52.76 51.74 51.44 51.51 52.57 55.77 56.48 55.97 55.66 52.03 51.61 54.20 108.83 108.46 96.31 51.69 51.70 51.71 51.70 51.74 51.77 51.75 51.76 51.76 51.75 51.77 51.78 52.15 51.91 51.77 54.97 68.91 83.77 83.45 83.18 83.20 82.93 82.95 82.97 82.93 82.97 90.79 90.68 90.64 90.60 90.64 90.62 90.64 90.59 90.59 90.55 90.59 90.53 90.52 90.52 90.51 90.48 90.46 90.48 90.51 90.56 90.56 90.56 90.55 90.58 90.56 90.62 90.62 90.67 90.62 90.69 90.70 90.75 90.68 89.20 81.73 58.28 73.57 66.97 52.81 51.34 -9999.0
65.92 64.94 62.77 62.23 52.30 52.26 52.29 52.31 52.52 52.55 54.42 52.52 60.78 60.08 60.09 60.10 60.08 60.07 60.07 60.04 60.06 60.06 60.10 60.07 60.08 60.08 60.08 60.10 60.06 60.08 60.06 93.28 131.83 131.75 131.83 132.01 131.94 131.93 131.87 130.35 131.95 131.81 131.75 131.83 132.06 70.18 60.01 60.04 60.01 60.00 60.02 60.01 66.02 68.01 69.67 69.79 70.02 70.25 70.42 70.55 70.82 70.94 71.02 71.15 71.17 71.26 71.25 71.27 71.19 71.22 71.15 71.00 70.96 70.87 70.56 70.37 70.22 69.89 69.76 69.65 69.54 61.47 60.50 60.06 60.03 60.07 60.05 60.07 60.07 60.03 60.05 60.02 60.03 60.03 60.08 60.03 60.03 60.05 60.03 138.86 152.18 152.15 152.10 152.09 152.10 60.08 60.10 60.05 60.05 60.04 60.07 60.06 60.05 60.17 60.26 60.28 60.34 60.35 60.35 60.25 60.15 60.02 60.17 60.20 60.18 60.18 60.21 60.24 60.21 60.21 60.07 60.42 57.64 56.57 52.30 52.33 55.78 56.14 56.12 56.10 56.10 56.12 56.12 56.19 52.25 52.26 52.26 52.25 52.25 52.26 52.27 52.30 52.28 52.29 52.28 52.24 51.35 51.34 51.37 51.39 51.41 52.36 52.31 51.48 51.45 51.44 51.44 51.42 51.41 52.50 52.59 51.39 51.47 53.87 55.91 55.69 56.19 55.77 51.59 51.59 51.62 89.32 108.88 65.70 51.67 51.64 51.68 51.66 51.71 51.74 51.70 51.72 51.72 51.73 51.76 54.46 52.90 53.32 52.46 51.76 51.75 59.92 67.03 63.12 83.44 83.05 83.06 82.94 83.00 86.45 90.74 90.65 90.65 90.65 90.62 90.60 90.58 90.57 90.56 90.55 90.53 90.51 90.52 90.47 90.49 90.43 90.48 90.49 90.54 90.56 90.51 90.56 90.59 90.61 90.65 90.67 90.67 90.75 90.90 90.74 90.74 90.85 67.08 61.77 59.46 51.41 51.43 51.40 51.39 51.38 -9999.0
66.12 65.35 63.08 62.84 55.94 52.27 52.29 52.31 53.75 57.33 58.62 52.55 56.90 60.10 60.07 60.09 60.09 60.09 60.08 60.08 60.07 60.12 60.11 60.12 60.10 60.08 60.09 60.07 60.07 60.07 60.09 60.08 132.10 131.79 131.76 131.84 131.92 131.98 131.98 131.99 131.90 131.76 131.70 131.67 131.85 96.56 60.04 60.05 60.02 60.04 60.02 60.05 60.04 61.11 67.56 69.58 69.68 69.83 70.01 70.16 70.28 70.48 70.57 70.65 70.78 70.81 70.82 70.84 70.81 70.77 70.72 70.54 70.48 70.28 70.09 69.92 69.80 69.66 69.57 67.37 60.14 60.07 60.05 60.04 60.03 60.04 60.05 60.03 60.04 60.01 60.03 60.05 60.05 60.07 60.04 60.05 60.01 60.05 60.05 60.06 109.95 152.19 152.13 152.14 152.20 60.07 60.07 60.03 60.06 59.99 60.07 60.07 60.05 60.11 60.27 60.32 60.35 60.34 60.32 60.26 60.18 60.04 60.05 60.07 60.04 60.05 60.15 60.21 60.10 60.15 60.08 60.77 58.53 59.43 52.30 52.31 53.40 56.42 56.11 56.14 56.21 56.09 56.08 56.78 52.27 52.27 52.27 52.28 52.26 52.27 52.27 52.28 52.27 52.28 52.27 52.24 51.51 51.36 51.33 51.40 51.40 51.47 52.00 51.46 51.43 51.45 51.44 51.38 51.38 51.71 52.87 51.32 51.47 51.49 53.33 54.91 54.07 51.53 51.57 51.60 51.61 67.32 94.55 51.60 51.61 51.63 51.65 51.65 51.68 51.68 51.70 51.74 51.72 51.73 51.77 51.90 53.07 53.36 53.26 53.26 52.38 52.03 54.87 55.39 80.58 82.32 82.94 82.90 85.03 90.78 90.68 90.72 90.68 90.66 90.61 90.58 90.55 90.54 90.53 90.52 90.52 90.51 90.47 90.50 90.52 90.50 90.53 90.51 90.53 90.53 90.56 90.65 90.65 90.70 90.69 90.68 75.24 90.76 88.02 89.03 77.24 76.74 51.36 51.36 51.44 51.43 51.40 51.43 55.19 54.15 -9999.0
64.91 64.09 63.17 62.50 53.88 52.30 52.29 52.30 52.41 61.42 63.52 57.83 52.52 60.16 60.13 60.12 60.03 60.08 60.09 60.10 60.08 60.07 60.10 60.10 60.08 60.10 60.08 60.05 60.05 60.08 60.07 60.08 105.87 132.00 131.73 131.75 131.91 131.92 131.98 131.85 131.74 131.72 131.70 131.70 131.70 132.07 60.03 60.03 60.03 60.04 60.03 60.02 60.01 60.01 60.05 67.33 69.54 69.60 69.69 69.77 69.81 70.00 70.08 70.15 70.26 70.26 70.32 70.33 70.31 70.24 70.18 70.08 69.95 69.79 69.70 69.63 69.58 68.22 63.72 60.04 60.05 60.05 60.02 60.03 60.03 60.04 60.02 60.05 60.05 60.04 60.03 60.03 60.07 60.06 60.06 60.04 60.05 60.03 60.01 60.04 60.06 60.05 60.07 60.23 67.67 60.07 60.05 60.07 60.05 60.04 60.11 60.14 60.09 60.08 60.27 60.36 60.31 60.32 60.23 60.27 60.23 60.08 60.06 60.02 60.08 60.05 60.07 60.07 60.05 60.12 60.15 60.18 59.47 57.48 54.63 52.33 52.33 57.02 56.15 56.09 56.17 56.09 56.06 56.23 54.09 52.21 52.28 52.28 52.31 52.28 52.30 52.27 52.28 52.28 52.26 52.23 51.58 51.35 51.35 51.38 51.38 51.39 51.71 51.52 51.44 51.42 51.42 51.38 51.36 51.37 51.39 51.31 51.49 51.47 51.49 51.52 54.76 52.87 51.55 51.57 51.59 51.62 64.68 51.59 51.58 51.61 51.67 51.65 51.67 51.66 51.66 51.70 51.70 51.71 51.75 51.74 51.86 53.00 52.99 53.09 53.29 53.27 52.24 51.78 56.76 74.57 78.87 82.25 84.91 90.73 90.71 90.71 90.68 90.61 90.61 90.61 90.59 90.55 90.58 90.50 90.48 90.54 90.57 90.53 90.53 90.55 90.55 90.53 90.56 90.69 90.77 90.71 90.71 90.67 66.28 69.27 82.48 72.24 70.90 65.59 52.25 51.44 54.35 53.62 51.97 51.87 51.41 51.63 55.60 56.70 -9999.0
65.87 61.76 62.02 61.95 52.44 52.33 52.30 57.90 59.08 63.76 66.46 64.72 55.97 60.06 60.10 60.16 60.04 60.08 60.09 60.11 60.07 60.09 60.08 60.09 60.07 60.04 60.06 60.06 60.05 60.06 60.08 60.07 60.09 60.11 131.77 131.73 131.78 131.89 131.77 131.71 131.74 131.71 131.69 131.67 131.67 131.81 109.90 60.04 60.03 60.02 60.00 60.04 59.98 60.03 60.01 60.06 60.10 62.52 69.10 69.60 69.59 69.67 69.70 69.76 69.81 69.86 69.89 69.82 69.84 69.80 69.73 69.71 69.63 69.60 69.26 69.55 62.74 60.04 60.05 60.05 60.06 60.05 60.05 60.06 60.02 60.01 60.05 60.02 60.04 60.05 60.05 60.04 60.05 60.05 60.04 60.05 60.04 60.03 60.01 60.01 60.01 60.05 60.05 60.03 60.05 60.05 60.05 60.11 60.14 60.21 60.17 60.24 60.17 60.07 60.16 60.27 60.27 60.29 60.27 60.21 60.17 60.07 60.05 60.05 60.06 60.05 60.05 60.10 60.10 60.11 60.17 60.13 61.04 57.33 57.58 52.34 52.30 55.01 56.11 56.10 56.27 56.19 56.08 56.07 57.11 52.23 52.28 52.28 52.30 52.27 52.27 52.29 52.31 52.28 52.29 52.26 51.86 51.31 51.35 51.37 51.41 51.38 51.37 51.46 51.41 51.38 51.44 51.41 51.39 51.38 51.35 51.36 51.39 51.45 51.48 51.51 53.01 55.28 53.72 54.39 51.59 51.61 51.60 51.55 51.59 51.59 51.61 51.62 51.62 51.62 51.66 51.67 51.68 51.73 51.69 51.76 52.04 52.44 52.98 53.00 53.06 53.10 53.30 53.03 52.79 51.75 51.74 75.28 90.77 90.72 90.73 90.65 90.65 90.66 90.67 90.66 90.57 90.60 90.52 90.57 90.54 90.57 90.55 90.58 90.55 90.56 90.71 90.66 90.74 90.71 90.80 90.63 87.07 70.37 70.60 51.42 51.38 51.40 51.39 51.44 51.41 51.41 55.08 57.04 55.58 51.51 51.41 52.85 54.91 53.27 -9999.0
67.26 61.24 59.13 57.17 52.59 52.32 52.31 52.28 54.02 62.39 65.82 59.12 58.34 55.77 60.13 60.12 60.14 60.06 60.06 60.09 60.06 60.08 60.07 60.08 60.09 60.06 60.05 60.08 60.06 60.07 60.07 60.07 60.09 60.06 109.31 131.73 131.73 131.73 131.73 131.72 132.02 132.26 131.84 131.69 131.70 131.72 131.92 60.01 60.02 59.99 60.02 60.00 60.02 60.02 60.03 59.99 60.01 59.99 60.06 60.11 61.95 66.56 69.52 69.56 69.58 69.56 69.59 69.59 69.61 69.59 69.56 69.56 67.94 66.04 60.05 60.07 60.05 60.05 60.06 60.04 60.04 60.07 60.02 60.04 60.01 60.02 60.05 60.06 60.04 60.06 60.04 60.08 60.04 60.06 60.07 60.06 60.04 60.02 59.99 60.02 60.00 60.00 60.03 60.03 60.05 60.13 60.17 60.24 60.25 60.28 60.20 60.25 60.23 60.06 60.10 60.23 60.27 60.19 60.10 60.06 60.05 60.07 60.05 60.04 60.02 60.06 60.05 60.11 60.14 60.11 60.14 60.14 60.60 56.86 57.08 52.63 52.35 55.91 56.17 56.16 56.15 56.20 56.10 56.09 56.68 52.25 52.25 52.31 52.28 52.29 52.28 52.31 52.29 52.30 52.30 52.30 52.29 51.40 51.38 51.36 51.37 51.37 51.41 51.43 51.47 51.43 51.43 51.41 51.39 51.38 51.37 51.36 51.37 51.42 51.49 51.50 51.57 55.83 55.14 53.46 51.55 51.57 51.57 51.57 51.60 51.57 51.59 51.63 51.61 51.62 51.63 51.62 51.65 51.67 51.71 51.92 52.04 52.09 53.04 52.96 53.66 53.36 53.11 53.57 53.27 53.02 51.74 79.65 90.71 90.71 90.74 90.66 90.69 90.68 90.64 90.59 90.62 90.54 90.60 90.56 90.58 90.58 90.62 90.69 90.65 90.78 89.77 90.75 90.71 76.93 77.14 58.39 56.08 61.83 51.40 51.38 51.40 53.27 53.77 53.51 51.42 54.26 58.42 59.52 58.01 57.99 54.81 51.36 52.97 53.27 -9999.0
67.80 65.61 65.21 62.51 52.64 52.30 52.32 52.29 54.17 57.21 61.19 59.59 58.17 53.25 60.41 60.14 60.12 60.05 60.12 60.07 60.10 60.11 60.10 60.09 60.06 60.07 60.06 60.05 60.07 60.09 60.10 60.08 60.08 60.05 69.97 131.96 131.73 131.74 131.68 131.68 132.24 132.25 132.00 131.71 131.72 131.68 119.53 60.00 60.00 59.97 60.01 60.02 60.02 60.01 60.00 60.03 60.01 60.00 59.98 60.00 60.01 60.05 60.11 60.09 60.08 62.02 63.92 62.33 60.82 60.03 59.99 60.00 60.00 60.01 60.04 60.06 60.02 60.04 60.01 60.04 60.05 60.03 60.02 60.03 60.03 60.05 60.03 60.04 60.04 60.06 60.04 60.04 60.03 60.03 60.04 60.03 60.04 60.01 60.01 60.03 60.00 60.01 60.02 60.01 60.04 60.17 60.23 60.25 60.30 60.26 60.22 60.23 60.24 60.10 60.08 60.17 60.06 60.12 60.06 60.09 60.07 60.11 60.09 60.03 60.08 60.12 60.10 60.21 60.15 60.16 60.15 60.18 60.11 59.46 56.31 56.85 56.71 56.47 56.21 56.10 56.12 56.27 56.09 56.07 56.14 53.86 52.25 52.26 52.27 52.28 52.30 52.32 52.31 52.31 52.32 52.32 52.32 51.46 51.30 51.35 51.38 51.41 51.41 51.42 51.43 51.42 51.41 51.42 51.40 51.36 51.37 51.35 51.36 51.40 51.46 51.50 54.74 54.55 55.05 52.16 51.53 51.57 51.56 51.57 51.54 51.55 51.56 51.61 51.58 51.61 51.64 51.61 51.60 51.63 51.68 52.05 52.00 52.03 52.94 52.95 53.50 53.22 53.27 54.03 53.24 52.67 57.35 90.79 90.74 90.67 90.74 90.71 90.69 90.66 90.60 90.67 90.66 90.61 90.59 90.67 90.65 90.96 90.73 90.65 90.75 90.73 82.40 86.15 71.74 51.51 51.70 51.47 51.46 51.43 51.43 51.43 52.14 55.17 55.63 54.77 51.43 54.75 57.40 59.44 58.77 56.12 55.70 52.02 52.27 51.36 -9999.0
67.95 60.07 65.86 65.68 60.80 52.50 52.31 52.28 52.29 53.08 57.67 52.58 52.60 52.57 58.98 60.09 60.09 60.04 60.05 60.10 60.09 60.09 60.07 60.08 60.09 60.11 60.08 60.08 60.09 60.06 60.08 60.06 60.04 60.03 60.05 102.56 131.92 131.68 131.69 131.69 131.82 131.97 131.68 131.74 131.70 67.05 66.06 59.99 59.98 59.97 60.04 60.01 60.01 60.01 60.03 60.03 60.00 59.96 59.99 60.01 60.00 60.02 60.03 60.02 60.01 59.99 60.02 60.02 59.97 60.00 59.99 59.99 59.99 60.00 60.02 60.07 60.04 60.03 60.04 60.02 60.05 60.05 60.03 60.04 60.04 60.04 60.04 60.05 60.05 60.02 60.03 60.02 60.00 60.02 60.03 60.01 60.03 60.02 60.00 60.03 59.99 60.01 60.02 60.05 60.03 60.10 60.23 60.26 60.26 60.25 60.23 60.14 60.17 60.08 60.09 60.07 60.07 60.15 60.14 60.11 60.12 60.12 60.12 60.04 60.22 60.16 60.14 60.14 60.18 60.19 60.18 60.15 60.12 60.84 56.13 56.13 56.10 56.12 56.18 56.11 56.13 56.20 56.23 56.09 56.11 52.90 52.27 52.24 52.29 52.30 52.31 52.31 52.33 52.33 52.31 52.29 52.30 52.08 51.33 51.32 51.35 51.41 51.40 51.39 51.40 51.42 51.44 51.39 51.39 51.39 51.42 51.39 51.38 51.38 51.42 51.44 51.71 52.27 54.40 52.05 51.53 51.56 51.57 51.58 51.58 51.52 51.55 51.56 51.56 51.59 51.60 51.61 51.59 51.63 51.95 52.10 52.05 52.08 52.32 53.09 53.15 54.24 53.14 53.34 53.12 51.69 55.13 90.76 90.77 90.66 90.76 90.69 90.68 90.70 90.71 90.67 90.68 90.74 90.82 90.66 89.67 90.70 69.63 80.92 82.12 77.19 57.29 51.47 51.47 51.48 51.43 51.45 51.41 51.42 51.41 51.41 54.58 55.80 55.51 55.51 53.27 53.87 57.44 58.79 56.46 55.51 56.33 51.36 51.32 51.32 -9999.0
67.91 66.92 66.67 66.32 59.45 52.69 52.30 52.29 52.32 52.34 52.41 52.60 52.58 52.52 60.82 60.07 60.07 60.09 60.04 60.09 60.10 60.10 60.08 60.09 60.10 60.13 60.08 60.08 60.06 60.05 60.07 60.01 60.01 60.03 60.02 60.02 98.31 131.76 131.70 131.71 131.74 131.70 131.74 131.75 131.70 74.47 60.01 60.01 60.04 60.01 60.02 60.01 60.00 59.98 60.01 60.00 59.99 60.03 60.01 60.00 60.02 60.04 60.04 60.05 60.05 59.95 60.00 60.01 60.02 60.02 59.99 60.01 59.99 60.02 60.01 60.05 60.06 60.02 60.01 60.04 60.05 60.04 60.05 60.06 60.03 60.05 60.04 60.04 60.04 60.04 60.03 60.02 60.04 60.03 60.02 60.03 60.04 60.00 60.01 60.02 59.99 60.00 60.03 60.02 60.01 60.09 60.21 60.18 60.18 60.13 60.10 60.04 60.07 60.11 60.05 60.13 60.30 60.22 60.18 60.17 60.18 60.19 60.15 60.05 60.10 60.20 60.16 60.16 60.14 60.14 60.11 60.13 60.07 60.38 56.95 56.12 56.13 56.16 56.15 56.16 56.13 56.16 56.29 56.11 56.10 54.80 52.27 52.31 52.71 52.30 52.34 52.31 52.34 52.31 52.29 52.31 52.29 52.33 51.36 51.28 51.32 51.38 51.45 51.40 51.40 51.40 51.39 51.44 51.45 51.44 51.42 51.39 51.35 51.40 51.42 51.46 51.47 51.51 51.51 51.50 51.52 51.55 51.55 51.56 51.51 51.54 51.50 51.54 51.57 51.60 51.54 51.64 51.64 51.79 52.04 52.06 52.06 52.06 52.59 53.04 53.03 53.83 53.48 53.17 52.04 51.64 55.53 90.39 89.95 90.46 90.42 89.20 90.72 90.71 90.74 90.77 90.71 90.68 90.68 62.62 75.71 72.44 70.86 51.54 51.52 51.48 51.45 51.45 51.46 51.41 51.44 51.45 51.41 51.41 51.42 51.42 55.08 54.74 51.94 55.29 55.03 51.40 51.37 56.04 53.11 56.00 55.29 51.28 51.32 51.27 -9999.0
66.77 66.86 65.79 65.44 63.40 52.58 52.33 52.32 52.29 52.30 52.33 52.62 52.59 52.49 58.70 60.10 60.11 60.10 60.09 60.09 60.09 60.08 60.05 60.11 60.10 60.09 60.07 60.08 60.06 60.04 60.04 60.03 60.04 60.01 60.05 60.03 60.03 99.53 131.67 131.70 131.75 131.73 131.72 131.72 131.69 132.05 60.00 60.01 60.01 60.01 60.01 59.99 59.99 60.01 60.02 60.00 60.02 60.03 60.01 59.99 60.01 60.03 60.01 60.03 59.99 60.00 60.00 59.99 60.04 60.00 59.99 60.00 60.01 60.01 60.01 60.02 60.05 60.03 60.05 60.06 60.05 60.08 60.07 60.05 60.02 60.03 60.03 60.01 60.03 60.02 60.02 60.03 60.00 60.02 59.99 60.00 60.02 60.02 60.01 60.02 60.01 60.01 60.01 60.03 60.03 60.04 60.09 60.08 60.07 60.07 60.11 60.21 60.17 60.19 60.14 60.10 60.20 60.22 60.22 60.19 60.20 60.24 60.16 60.08 60.05 60.14 60.15 60.18 60.16 60.05 60.05 60.08 60.05 60.11 56.63 56.11 56.13 56.21 56.13 56.16 56.16 56.15 56.27 56.16 56.08 56.17 52.56 53.42 52.95 52.33 52.28 52.32 52.32 52.32 52.31 52.28 52.26 52.30 51.62 51.30 51.31 51.32 51.42 51.38 51.44 51.43 51.43 51.42 51.43 51.40 51.42 51.38 51.36 51.36 51.41 51.45 51.47 51.46 51.46 51.50 51.52 51.51 51.53 51.53 51.49 51.52 51.51 51.56 51.55 51.53 51.56 51.58 51.66 51.86 51.99 51.97 52.03 51.98 52.14 52.86 52.97 53.05 53.10 53.02 51.65 73.62 90.36 89.07 89.08 89.60 89.59 89.12 90.41 90.76 90.72 90.27 68.12 78.89 69.81 59.46 51.55 51.53 51.50 51.52 51.46 51.47 52.10 51.45 51.41 51.43 51.43 51.42 51.41 51.49 51.43 51.35 53.78 55.45 54.28 55.38 51.49 51.34 51.36 52.95 55.13 51.30 51.29 51.35 51.49 51.45 -9999.0
67.52 61.27 64.85 63.50 63.46 58.41 52.45 52.33 52.31 52.30 52.33 52.53 52.49 52.37 54.51 60.45 60.10 60.10 60.19 60.04 60.11 60.10 60.09 60.08 60.11 60.06 60.03 60.07 60.04 60.02 60.04 60.00 60.00 60.00 60.03 60.06 60.03 60.05 131.88 131.70 131.74 131.74 131.72 131.72 131.85 87.19 60.03 60.02 60.00 60.04 60.00 59.98 60.01 60.00 60.03 60.04 59.98 60.01 60.05 60.04 60.05 60.01 60.04 60.00 60.03 60.00 60.01 60.00 60.00 59.99 59.99 60.00 59.98 60.02 60.01 60.03 60.07 60.05 60.06 60.05 60.04 60.05 60.05 60.05 60.02 60.00 60.06 60.05 60.02 60.05 60.01 60.02 60.04 59.98 59.99 59.99 60.00 60.00 60.01 60.00 59.99 60.00 60.01 60.05 60.02 60.04 60.11 60.12 60.19 60.07 60.07 60.24 60.15 60.19 60.19 60.05 60.14 60.20 60.23 60.24 60.30 60.23 60.20 60.15 60.02 60.14 60.15 60.17 60.13 60.04 60.06 60.08 60.07 60.25 57.65 56.13 56.14 56.17 56.26 56.17 56.18 56.21 56.32 56.20 56.13 56.16 53.94 57.44 56.35 52.55 52.26 52.31 52.31 52.32 52.30 52.32 52.27 52.27 52.25 51.24 51.27 51.29 51.35 51.38 51.40 51.42 51.45 51.43 51.48 51.46 51.39 51.40 51.37 51.34 51.38 51.43 51.45 51.45 51.45 51.47 51.50 51.51 51.53 51.52 51.48 51.49 51.52 51.49 51.49 51.54 51.55 51.57 51.72 51.95 52.01 52.05 52.04 52.07 52.06 52.25 53.05 52.94 53.16 52.70 51.62 89.65 89.13 89.09 89.08 89.09 89.28 89.98 89.90 90.78 62.33 61.24 52.70 51.62 51.61 51.52 51.56 51.45 51.49 51.50 51.50 51.42 51.42 51.41 51.44 51.45 51.45 51.45 51.37 51.60 51.39 51.50 51.42 51.37 51.75 53.02 51.39 51.33 51.32 51.37 53.05 52.28 51.28 51.44 52.09 52.29 -9999.0
67.71 61.36 61.24 63.54 63.21 57.96 52.46 52.35 52.32 52.32 52.33 52.31 52.31 52.31 52.32 61.03 60.32 60.76 60.11 60.09 60.08 60.05 60.09 60.06 60.09 60.02 60.05 59.99 60.01 60.04 60.04 60.05 60.02 60.04 60.04 60.05 60.07 60.05 78.27 131.84 131.71 131.70 131.78 131.89 132.06 60.07 60.01 60.02 60.02 60.01 60.03 59.99 59.97 60.00 59.97 60.01 60.00 59.98 59.99 59.99 59.99 60.04 60.05 60.03 60.01 60.01 60.04 60.00 60.04 59.99 60.00 60.01 60.01 60.02 60.02 59.99 60.04 60.04 60.04 60.05 60.06 60.04 60.04 60.05 60.02 60.00 60.03 60.03 60.06 60.03 60.04 60.00 60.03 60.00 60.01 60.00 60.01 60.02 60.04 60.04 60.02 60.03 60.03 60.10 60.10 60.13 60.20 60.17 60.20 60.06 60.05 60.17 60.15 60.18 60.19 60.06 60.11 60.19 60.26 60.28 60.32 60.28 60.25 60.18 60.03 60.06 60.08 60.07 60.04 60.06 60.03 60.05 60.05 60.08 59.55 56.15 56.15 56.18 56.41 56.37 56.15 56.26 56.23 56.27 56.11 56.13 55.73 55.79 57.71 53.17 52.25 52.29 52.29 52.27 52.28 52.18 52.22 52.20 51.44 51.22 51.27 51.30 51.34 51.38 51.44 51.43 51.43 51.43 51.83 52.13 51.41 51.38 51.37 51.34 51.34 51.42 51.46 51.47 51.49 51.50 51.49 51.49 51.50 51.52 51.49 51.54 51.50 51.50 51.51 51.50 51.54 51.62 51.95 52.05 52.00 57.85 57.79 55.48 52.03 52.31 53.13 53.00 53.19 51.60 58.40 89.66 89.11 89.08 90.09 90.08 90.41 67.51 61.25 60.59 51.45 51.38 51.43 51.60 51.54 51.53 51.52 51.49 51.49 51.48 51.46 51.39 54.68 55.06 53.71 52.59 51.41 51.37 51.32 51.39 51.37 51.40 51.34 51.34 51.33 51.34 51.25 51.27 51.63 51.88 52.17 56.22 51.76 51.29 51.38 51.21 -9999.0
67.51 65.32 64.26 63.59 63.91 54.33 52.50 52.35 52.35 52.31 52.31 52.31 52.30 52.31 52.34 57.80 56.18 60.52 60.10 60.13 60.04 60.08 60.09 60.07 60.06 60.05 60.06 60.06 60.02 60.03 60.04 60.06 60.07 60.03 60.01 60.03 60.03 60.06 60.07 124.62 131.88 131.93 132.00 132.07 68.42 60.04 60.03 60.03 60.01 60.01 60.00 60.00 60.02 59.99 60.00 59.99 60.00 59.98 59.95 59.99 60.03 60.00 60.00 60.02 60.02 60.02 60.02 60.00 59.99 59.98 60.01 59.99 60.00 60.00 60.01 59.98 60.05 60.03 60.02 60.02 60.03 60.08 60.02 60.04 60.07 60.02 60.03 60.03 60.06 60.06 60.06 60.04 60.04 60.02 60.02 60.01 60.02 60.06 60.06 60.07 60.07 60.11 60.15 60.16 60.17 60.23 60.22 60.23 60.21 60.14 60.07 60.12 60.22 60.23 60.19 60.10 60.09 60.19 60.27 60.28 60.30 60.30 60.29 60.20 60.12 60.04 60.06 60.06 60.04 60.02 60.06 60.02 60.06 60.02 60.09 56.39 56.30 56.99 54.64 52.35 54.64 56.20 56.15 56.18 56.13 56.11 56.56 54.34 54.07 52.26 52.22 52.23 52.24 52.27 52.05 51.89 51.75 51.53 51.42 51.26 51.23 51.28 51.30 51.36 51.37 51.40 51.45 51.42 52.20 52.36 51.43 51.38 51.36 51.31 51.29 51.42 51.47 51.48 51.49 51.49 51.51 51.54 51.54 51.51 51.54 51.48 51.50 51.53 51.53 51.53 51.55 52.28 52.05 52.09 53.05 57.55 57.53 57.17 54.37 52.69 53.11 53.14 51.76 51.61 90.50 90.29 90.31 90.55 90.73 59.94 61.97 57.81 51.44 51.39 51.31 51.34 51.37 51.48 51.51 51.50 51.50 51.49 51.48 51.40 51.45 51.46 55.24 55.79 55.11 52.03 51.39 51.36 51.35 51.35 51.33 51.35 51.32 51.77 51.31 51.22 51.21 51.24 52.02 52.21 52.19 59.52 51.42 51.17 51.20 51.52 -9999.0
67.07 66.13 58.34 64.56 62.52 56.88 56.43 55.39 52.34 52.30 52.31 52.31 52.29 52.32 52.57 53.70 55.93 52.91 60.62 60.13 60.05 60.04 60.06 60.04 60.05 60.06 60.03 60.05 60.08 60.07 60.04 60.06 60.02 60.04 60.06 60.04 60.09 60.03 60.03 60.02 118.77 132.09 132.08 76.24 60.00 60.00 60.04 60.03 60.01 60.00 59.99 60.01 59.98 59.99 59.99 60.01 60.00 59.97 60.04 60.00 60.00 59.98 60.02 60.00 60.01 60.02 60.07 60.01 59.99 60.00 60.03 60.00 60.01 59.97 60.00 59.98 60.02 60.01 60.01 60.04 60.07 60.04 60.07 60.04 60.05 60.07 60.04 60.08 60.05 60.06 60.07 60.06 60.04 60.05 60.05 60.06 60.03 60.07 60.02 60.07 60.05 60.06 60.10 60.16 60.20 60.21 60.21 60.25 60.23 60.16 60.05 60.12 60.22 60.20 60.21 60.19 60.05 60.19 60.22 60.27 60.27 60.23 60.18 60.12 60.02 60.06 60.03 60.03 60.05 60.02 60.04 60.01 60.00 60.01 60.04 58.03 55.74 54.28 52.34 52.45 57.18 56.23 56.17 56.22 56.12 56.11 56.18 54.41 52.23 52.36 52.64 52.18 52.15 52.07 51.99 51.87 51.81 51.55 51.45 51.37 51.21 51.25 51.31 51.33 51.38 51.39 51.40 51.42 51.85 52.75 52.15 51.44 51.36 51.33 51.33 51.41 51.45 51.46 51.48 51.49 51.50 51.50 51.53 51.51 51.48 51.47 51.51 51.46 51.51 51.46 51.59 57.45 58.87 57.79 55.30 57.76 59.33 56.63 54.92 53.79 54.85 52.96 51.59 51.61 90.60 77.97 54.41 51.54 51.44 51.42 51.33 51.42 51.40 51.44 53.00 53.34 51.54 51.53 51.48 53.31 56.23 56.30 53.93 51.41 51.41 51.42 51.84 52.81 53.43 51.34 51.55 51.36 51.33 51.34 51.32 51.36 51.24 51.20 51.21 51.21 51.16 51.21 51.40 51.34 51.26 53.15 51.22 51.19 51.86 52.54 -9999.0
63.52 66.61 65.83 64.75 61.80 61.01 59.79 59.40 52.32 52.32 52.33 52.34 52.27 52.32 53.75 53.13 61.11 52.31 61.09 60.10 60.09 60.06 60.07 60.06 60.02 60.09 60.05 60.06 60.06 60.03 60.03 60.05 60.03 60.05 60.04 60.05 60.02 60.04 60.02 60.00 60.01 116.73 98.45 60.06 60.04 60.02 60.05 60.03 60.00 60.00 59.99 59.98 60.01 59.97 59.98 59.99 60.00 59.98 59.99 59.97 59.98 60.03 60.02 60.01 60.03 60.02 60.02 60.00 60.00 60.02 60.01 59.99 59.99 60.01 60.01 59.99 60.02 60.04 60.02 60.05 60.06 60.07 60.04 60.06 60.05 60.04 60.04 60.07 60.08 60.08 60.06 60.05 60.05 60.03 60.04 60.03 60.06 60.04 60.03 60.06 60.06 60.05 60.12 60.16 60.21 60.26 60.18 60.21 60.14 60.06 60.06 60.06 60.15 60.23 60.18 60.21 60.05 60.15 60.18 60.13 60.14 60.07 60.03 60.03 60.02 60.03 60.01 60.02 60.01 60.02 60.02 60.01 60.02 60.00 60.03 60.21 55.19 56.00 52.30 52.30 54.82 56.23 56.16 56.17 56.21 56.13 56.15 56.83 52.27 52.29 52.80 52.16 52.14 54.75 54.76 51.88 56.46 51.71 51.48 51.40 51.20 51.24 51.28 51.36 51.40 51.38 51.40 51.40 51.41 52.79 52.49 51.41 51.34 51.36 51.34 51.32 51.41 51.45 51.48 51.46 51.51 51.46 51.50 51.46 51.47 51.46 51.47 56.52 51.50 53.73 53.18 55.18 58.64 60.21 60.38 60.66 59.59 55.25 58.47 56.13 55.66 51.71 51.55 51.52 52.33 56.58 51.36 51.36 51.41 52.40 51.53 51.66 51.47 51.54 55.56 55.67 51.46 51.46 51.41 51.58 54.46 55.75 54.99 51.41 51.41 51.39 51.31 51.34 51.34 51.35 51.31 51.32 51.26 51.35 52.88 52.98 51.45 51.21 51.16 51.18 51.21 51.22 51.23 51.25 51.21 51.20 51.22 51.26 52.00 51.97 -9999.0
56.75 66.59 65.44 61.41 62.03 61.56 60.41 60.74 60.22 58.07 52.34 52.36 52.31 52.33 53.54 53.66 57.45 52.32 56.51 60.14 60.09 60.08 60.07 60.04 60.03 60.04 60.06 60.09 60.05 60.04 60.06 60.06 60.05 60.03 60.03 60.03 60.07 60.03 60.05 60.02 60.05 60.04 60.01 60.01 60.03 60.01 60.03 60.02 60.04 59.98 59.99 59.97 59.95 59.97 59.96 60.00 60.01 59.97 59.99 59.98 60.01 60.01 60.00 60.01 60.00 60.00 60.00 60.01 60.03 59.99 60.04 59.99 60.01 60.00 60.05 60.01 60.00 60.05 60.04 60.04 60.03 60.06 60.02 60.03 60.07 60.05 60.02 60.05 60.04 60.06 60.04 60.03 60.05 60.05 60.04 60.02 60.04 60.04 60.05 60.06 60.06 60.05 60.10 60.14 60.14 60.14 60.08 60.08 60.06 60.06 60.07 60.04 60.11 60.29 60.23 60.22 60.13 60.09 60.11 60.03 60.06 60.02 60.03 60.01 60.02 60.04 60.04 60.03 60.01 60.03 59.99 60.01 60.03 60.00 60.04 60.54 55.70 55.09 52.31 52.29 52.34 56.74 56.18 56.16 56.27 56.14 56.09 56.55 52.97 52.27 52.20 52.15 56.20 53.47 53.30 51.92 52.19 54.23 51.51 51.44 51.31 51.21 51.26 51.30 51.32 51.34 51.39 51.37 51.40 52.20 52.29 51.48 51.40 51.35 51.35 51.68 51.43 51.42 51.45 51.46 51.46 51.49 51.48 51.50 51.54 51.47 54.57 60.03 60.29 58.40 57.99 58.14 55.01 60.22 60.96 60.67 60.02 54.65 58.92 58.32 51.60 52.53 51.51 51.28 51.31 51.31 51.44 51.47 51.47 55.88 56.08 52.68 51.59 54.50 56.00 55.70 51.36 51.41 51.42 51.39 52.32 54.97 53.89 51.35 51.36 51.35 51.33 51.31 51.42 52.58 51.22 51.80 51.85 52.75 52.48 52.77 51.50 51.22 51.26 51.25 51.24 51.22 51.25 51.25 51.25 51.26 51.21 51.22 51.20 51.18 -9999.0
52.63 60.87 58.58 63.03 64.80 62.34 61.30 60.99 60.81 58.20 52.32 52.34 52.33 52.35 52.38 54.54 54.19 57.14 52.32 60.69 60.05 60.05 60.03 60.03 60.04 60.05 60.05 60.05 60.06 60.04 60.06 60.07 60.05 60.06 60.03 60.02 60.05 60.06 60.04 60.04 60.04 60.02 60.02 60.03 60.03 60.03 60.02 60.02 60.00 59.99 60.00 60.01 59.95 59.98 60.01 59.97 60.01 60.01 60.00 60.01 59.98 60.02 59.99 60.00 60.03 60.03 60.00 60.03 59.98 60.00 60.03 60.02 60.02 60.02 60.02 59.99 60.01 60.03 60.04 60.07 60.05 60.07 60.05 60.07 60.06 60.04 60.05 60.04 60.06 60.06 60.04 60.07 60.05 60.04 60.04 60.03 60.05 60.04 60.05 60.05 60.09 60.05 60.07 60.08 60.07 60.16 60.02 60.05 60.06 60.05 60.08 60.05 60.11 60.20 60.09 60.10 60.03 60.06 60.06 60.05 59.99 60.03 60.02 60.01 60.01 60.01 60.03 60.01 60.00 60.00 60.01 59.98 60.01 60.02 60.06 60.12 58.66 54.21 54.13 52.33 52.32 57.05 56.19 56.12 56.15 56.06 56.09 56.11 55.24 52.25 52.24 52.13 56.74 52.06 52.49 52.35 54.88 53.29 51.53 51.41 51.33 51.18 51.24 51.26 51.34 51.38 51.38 51.37 51.42 51.63 51.58 51.37 51.38 59.04 53.91 56.64 54.70 51.43 51.45 51.52 51.46 51.47 51.46 51.51 51.48 52.46 56.48 60.23 60.38 60.39 59.85 58.16 60.65 60.08 60.39 60.56 59.31 58.63 58.51 56.82 53.03 51.56 51.43 51.35 51.43 51.45 51.47 51.47 52.68 57.51 57.20 55.91 52.70 52.92 54.90 56.45 52.08 51.39 51.34 51.39 51.37 52.30 51.33 51.29 51.32 51.30 51.53 51.46 52.45 52.02 51.91 51.26 51.61 51.66 51.23 51.19 51.25 51.28 51.26 51.26 51.23 51.27 51.29 51.24 51.22 51.24 51.23 51.18 51.17 51.12 -9999.0
56.53 58.55 64.54 66.31 65.97 67.04 63.37 61.41 58.34 58.91 52.35 52.35 52.33 52.35 52.34 55.36 54.73 60.41 52.31 59.93 60.03 60.03 60.02 60.04 60.04 60.05 60.05 60.05 60.05 60.05 60.03 60.06 60.06 60.07 60.04 60.03 60.05 60.04 60.03 60.02 60.01 60.02 59.99 60.02 59.99 60.00 60.02 60.03 60.01 60.01 60.00 60.02 59.97 59.99 60.01 60.01 60.03 60.02 60.03 60.00 59.97 59.97 60.01 59.99 60.03 60.01 59.99 59.97 60.00 60.01 60.03 60.04 60.06 60.03 60.05 60.03 60.01 60.06 60.06 60.06 60.04 60.04 60.04 60.08 60.06 60.02 60.04 60.01 60.04 60.04 60.05 60.05 60.05 60.01 60.04 60.04 60.07 60.06 60.08 60.07 60.07 60.06 60.03 60.05 60.04 60.14 60.04 60.06 60.10 60.08 60.05 60.08 60.06 60.07 60.03 60.05 60.04 60.08 60.06 60.05 60.04 60.01 60.02 60.05 59.98 60.04 60.02 59.98 60.00 60.00 60.03 60.01 60.02 60.00 60.04 60.02 60.85 54.15 54.74 52.30 52.42 53.74 56.46 56.15 56.22 56.21 56.08 56.05 57.02 52.27 52.23 52.17 53.79 52.08 57.65 53.19 51.82 51.79 51.64 51.40 51.32 51.18 51.21 55.50 51.32 51.32 51.40 51.38 51.39 51.39 51.39 51.37 51.39 51.42 51.32 51.30 51.31 51.42 51.45 51.39 51.42 51.44 51.45 51.41 51.39 51.38 59.81 58.45 60.14 60.20 60.49 59.41 53.13 60.06 59.96 59.74 58.29 59.46 58.38 58.16 51.47 52.21 55.13 54.40 54.82 55.50 52.98 51.41 55.46 56.28 55.62 51.38 51.49 51.39 52.70 52.85 52.53 51.36 51.38 51.32 51.35 51.29 51.38 51.53 51.99 51.58 51.77 52.01 52.46 51.50 51.31 51.18 51.22 51.19 51.21 51.20 51.23 51.24 51.27 51.24 51.27 51.23 51.22 51.17 51.18 51.17 51.15 51.14 51.53 52.45 -9999.0
53.37 66.70 66.39 68.29 67.71 67.16 65.38 60.59 59.38 59.23 58.52 52.33 52.33 52.34 52.33 53.85 55.27 57.55 53.82 55.39 60.18 60.01 60.03 60.03 59.98 60.03 60.04 60.05 60.02 60.04 60.05 60.05 60.05 60.02 60.04 60.03 60.06 60.03 60.01 59.98 59.99 59.99 60.00 60.02 60.01 60.01 60.00 60.03 60.00 60.00 60.02 60.02 60.04 59.97 59.97 60.00 60.01 60.02 60.02 60.00 59.96 59.97 59.98 60.00 60.03 60.02 60.03 59.98 60.02 60.02 60.03 60.00 60.04 60.04 60.05 60.04 60.04 60.03 60.03 60.09 60.03 60.06 60.05 60.07 60.08 60.04 60.03 60.06 60.04 60.06 60.05 60.06 60.03 60.03 60.03 60.02 60.03 60.05 60.08 60.08 60.05 60.08 60.07 60.06 60.06 60.04 60.05 60.06 60.07 60.06 60.04 60.07 60.02 60.05 60.05 60.03 60.05 60.07 60.04 60.04 60.03 60.04 60.03 60.04 60.00 60.02 60.04 60.00 59.98 60.00 59.99 60.02 59.99 60.00 60.03 60.02 60.19 56.09 54.30 52.74 52.60 52.33 56.70 56.12 56.09 56.16 56.05 56.06 56.28 53.69 52.24 52.20 52.13 53.88 53.80 51.95 51.88 56.90 54.22 51.44 51.37 54.47 54.04 52.77 52.49 51.29 51.29 51.38 51.36 51.39 51.41 51.41 51.40 51.38 51.33 51.29 51.27 51.40 51.41 51.42 51.42 51.43 51.41 51.41 51.40 51.40 52.40 59.77 59.95 60.10 59.67 58.59 58.63 59.02 59.30 59.21 59.12 54.27 57.50 57.38 51.47 51.44 55.89 57.02 57.01 56.42 55.49 52.26 55.45 55.20 52.00 51.36 51.36 51.36 51.34 51.36 51.33 51.31 51.29 51.43 51.18 51.57 51.98 52.54 52.46 51.97 51.35 51.24 51.19 51.17 51.20 51.18 51.21 51.24 51.23 51.24 51.22 51.21 51.20 51.18 51.21 51.19 51.15 51.17 51.15 51.13 51.10 51.05 51.44 55.36 -9999.0
57.45 67.17 68.69 68.99 67.78 67.23 65.66 65.41 61.18 59.52 53.64 52.34 52.32 52.32 52.31 52.32 55.89 55.81 61.10 60.60 60.29 59.99 60.08 60.03 60.05 60.04 60.02 60.02 60.06 60.01 60.05 60.04 60.03 60.06 60.06 60.03 60.03 60.04 60.06 60.00 60.01 60.00 60.01 59.99 60.00 60.01 60.03 60.03 60.00 60.00 60.02 60.00 60.01 59.98 59.99 60.00 60.03 60.01 60.01 60.00 59.99 59.95 59.98 60.02 60.02 60.03 60.02 60.04 60.01 60.00 60.03 60.04 60.03 60.04 60.02 60.05 60.02 60.03 60.02 60.07 60.06 60.07 60.06 60.07 60.03 60.03 60.05 60.04 60.04 60.05 60.04 60.05 60.04 60.04 60.03 60.03 60.07 60.04 60.04 60.07 60.05 60.08 60.02 60.04 60.06 60.05 60.06 60.06 60.06 60.06 60.05 60.06 60.03 60.02 60.05 60.03 60.02 60.01 60.02 60.03 60.06 60.01 60.02 60.00 60.03 60.04 59.98 60.00 60.01 60.00 59.97 60.01 60.03 59.99 60.02 60.03 60.05 59.52 53.70 54.15 52.32 52.30 55.76 56.30 56.10 56.26 56.10 56.04 56.08 55.99 52.27 52.17 56.77 55.54 52.00 51.96 51.91 55.04 51.76 51.54 51.40 51.74 51.14 51.23 51.26 51.30 51.30 51.40 51.35 51.39 51.37 51.45 51.42 51.37 51.31 51.28 51.27 51.28 51.37 51.41 51.41 51.35 51.44 51.41 51.40 51.40 51.42 57.23 59.61 59.49 58.61 58.69 54.98 57.97 51.40 58.38 51.61 51.44 51.41 51.42 51.41 53.03 57.13 58.55 58.14 57.37 55.17 51.38 54.46 56.07 54.13 51.30 51.32 51.34 51.34 51.27 51.30 51.31 52.37 52.11 51.32 51.73 51.95 52.19 51.51 51.20 51.21 51.19 51.19 51.25 51.20 51.23 51.23 51.25 51.23 51.26 51.21 51.19 51.17 51.14 51.07 51.11 51.09 51.12 51.04 51.01 51.04 51.07 51.11 55.23 -9999.0
57.28 67.55 68.80 69.00 68.70 66.74 64.89 65.01 61.97 58.53 52.91 52.35 52.33 52.36 52.34 52.31 55.60 55.98 59.75 60.06 60.07 60.03 60.04 60.03 60.05 60.05 60.07 60.03 60.07 60.03 60.03 60.06 60.03 60.06 60.05 60.07 60.04 60.04 60.05 60.01 60.03 60.00 60.00 60.00 60.01 60.01 60.02 60.05 60.01 60.02 60.04 60.01 60.02 60.00 59.99 59.99 59.99 60.01 60.01 60.00 60.01 59.98 59.97 60.03 60.02 60.01 60.03 60.02 60.00 60.02 60.04 60.05 60.05 60.05 60.02 60.04 60.04 60.04 60.05 60.08 60.06 60.06 60.06 60.07 60.05 60.03 60.05 60.06 60.02 60.02 60.04 60.04 60.03 60.05 60.04 60.04 60.03 60.01 60.01 60.08 60.04 60.05 60.05 60.06 60.05 60.03 60.06 60.07 60.03 60.05 60.04 60.06 60.04 60.05 60.03 60.03 60.04 60.03 60.03 60.07 60.01 60.03 60.03 60.01 60.02 60.02 60.02 60.02 60.02 60.00 60.00 60.00 60.02 60.02 60.02 60.02 60.03 60.72 53.17 53.66 52.31 52.26 52.70 56.35 56.10 56.12 56.10 56.08 56.08 56.85 52.25 52.19 52.09 52.06 52.01 58.82 53.22 57.28 52.71 51.64 51.40 51.32 51.15 51.23 51.26 51.30 51.27 51.35 51.32 51.39 51.38 51.37 51.42 51.37 51.36 51.30 51.27 51.24 51.34 51.37 51.52 51.38 51.37 51.38 51.35 51.41 51.39 51.40 58.57 58.27 58.57 57.17 51.41 51.43 51.44 52.22 51.41 51.39 51.38 51.41 51.35 55.04 57.20 57.22 56.21 58.17 56.26 51.68 51.35 51.35 51.32 51.30 51.28 51.24 51.22 51.18 51.76 52.19 52.20 52.02 51.53 51.21 51.25 51.23 51.17 51.22 51.26 51.21 51.23 51.22 51.23 51.22 51.19 51.19 51.22 51.22 51.13 51.11 51.20 51.09 51.78 51.11 51.04 56.47 54.87 51.14 51.07 51.14 51.14 53.94 -9999.0
67.87 68.33 68.59 58.98 62.30 67.06 66.49 64.92 62.24 53.09 52.31 52.33 52.33 52.36 52.34 52.34 53.54 56.02 57.02 60.27 60.04 60.04 59.98 60.00 60.02 60.05 60.01 60.03 60.09 60.06 60.02 60.05 60.03 60.05 60.04 60.07 60.06 60.04 60.03 60.05 60.00 60.03 60.03 60.03 60.04 60.02 60.03 60.03 60.02 60.00 60.03 60.00 60.01 59.99 59.99 60.02 60.01 60.02 60.01 59.95 60.03 60.02 60.02 60.02 60.00 60.03 60.01 60.02 60.02 60.04 60.04 60.02 60.04 59.99 60.02 60.06 60.06 60.02 60.04 60.08 60.08 60.06 60.05 60.04 60.02 60.01 60.07 60.05 60.05 60.05 60.06 60.06 60.04 60.04 60.04 60.03 60.05 60.02 60.02 60.03 60.05 60.06 60.07 60.06 60.03 60.04 60.05 60.06 60.05 60.04 60.06 60.07 60.04 60.05 60.04 60.04 60.04 60.03 60.05 60.04 60.04 60.03 60.03 60.03 60.04 60.05 60.01 60.00 60.03 60.00 60.02 60.00 60.01 60.01 60.03 60.02 60.02 60.04 56.26 52.59 52.28 52.27 52.28 56.41 56.17 56.08 56.25 56.08 56.07 56.38 52.24 52.15 52.12 57.84 54.93 54.83 55.71 51.85 51.74 51.70 51.44 51.35 51.15 51.22 51.20 51.27 51.28 51.28 51.37 51.39 51.37 51.36 51.43 51.34 51.34 51.25 51.27 51.20 51.27 51.31 51.39 51.37 51.37 51.38 51.37 51.41 51.39 51.42 52.61 54.91 56.14 53.81 51.43 51.43 51.39 51.41 51.39 51.37 51.33 51.31 51.38 51.33 53.59 51.84 51.31 53.40 54.31 51.29 51.31 51.27 51.23 51.32 51.29 52.52 52.20 51.61 51.37 51.46 51.56 51.27 51.20 51.22 51.21 51.21 51.25 51.21 51.26 51.27 51.21 51.19 51.18 51.22 51.83 51.67 51.17 51.15 51.41 51.16 52.24 51.64 51.75 51.11 54.17 56.63 56.85 55.95 54.36 51.14 51.17 51.41 -9999.0
68.15 64.58 68.10 65.13 65.08 67.88 67.13 65.23 62.30 65.28 54.09 52.37 52.36 52.35 52.37 52.35 52.33 56.10 56.17 60.10 60.06 60.06 60.04 60.00 60.03 60.02 60.02 60.03 60.03 60.03 60.02 60.04 60.05 60.07 60.06 60.06 60.03 60.05 60.06 60.08 60.01 60.03 60.03 60.03 59.99 60.02 60.00 60.00 60.05 60.00 60.01 60.03 60.01 59.99 60.01 60.02 60.03 60.02 60.00 59.98 60.01 60.01 59.99 60.01 59.99 60.03 60.04 60.02 60.04 60.04 60.04 60.03 60.03 60.03 60.02 60.04 60.02 60.05 60.03 60.04 60.07 60.08 60.05 60.03 60.05 60.05 60.05 60.07 60.04 60.04 60.02 60.05 60.04 60.02 60.02 60.04 60.02 60.01 60.04 60.04 60.06 60.07 60.07 60.04 60.05 60.07 60.07 60.04 60.06 60.03 60.06 60.08 60.07 60.09 60.05 60.06 60.06 60.03 60.06 60.04 60.04 60.06 60.05 60.06 60.03 60.03 60.05 60.01 60.03 60.02 59.98 60.03 59.99 60.00 60.02 60.02 60.01 60.03 58.08 52.30 52.28 52.26 52.28 54.65 56.15 56.09 56.10 56.10 56.08 56.39 52.78 54.98 56.26 53.26 52.02 55.85 57.48 51.87 53.38 52.29 51.55 51.38 51.25 51.20 51.24 51.24 51.25 51.33 51.34 51.32 51.34 51.37 51.37 51.37 51.31 51.30 51.29 51.24 51.29 51.35 51.38 51.32 51.40 51.40 51.38 51.38 51.39 51.41 51.38 51.42 51.43 52.31 51.40 51.40 51.34 51.37 51.38 51.32 51.34 51.36 51.30 51.30 51.29 51.30 51.35 51.36 51.46 51.36 51.21 57.69 51.19 51.78 51.88 52.32 51.74 51.31 51.25 51.24 51.22 51.26 51.23 51.18 51.25 51.20 51.26 51.24 51.23 51.23 51.20 51.16 51.17 51.19 52.33 51.13 51.09 51.08 51.40 51.17 53.24 51.35 51.16 51.22 54.53 55.42 56.91 51.15 51.17 51.19 51.18 51.22 -9999.0
60.11 65.66 59.25 67.74 68.41 68.15 67.75 66.90 61.49 62.70 52.35 52.92 52.34 52.33 52.33 52.33 52.31 52.30 52.30 57.50 60.04 60.05 60.07 60.12 60.07 60.07 60.02 60.03 60.07 60.03 60.04 60.01 60.07 60.05 60.05 60.06 60.05 60.05 60.05 60.05 60.06 60.03 60.02 60.02 60.01 60.02 60.01 60.00 60.03 60.00 60.02 60.06 60.04 60.00 60.03 60.02 60.02 60.00 60.02 59.99 60.00 60.01 60.01 60.01 60.01 60.02 60.04 60.05 60.02 60.00 60.02 60.03 60.02 60.00 60.03 60.05 60.04 60.05 60.05 60.05 60.06 60.07 60.07 60.08 60.05 60.05 60.05 60.04 60.03 60.03 60.05 60.03 60.05 60.05 60.06 60.03 60.00 60.02 60.04 60.06 60.05 60.06 60.07 60.07 60.04 60.24 60.22 60.39 60.13 60.36 60.25 60.38 60.22 60.07 60.07 60.06 60.04 60.03 60.05 60.07 60.02 60.03 60.03 60.06 60.02 60.05 60.02 60.02 60.01 60.02 60.01 60.03 60.01 60.01 60.00 60.02 60.03 60.01 56.51 52.30 52.30 52.29 52.30 56.69 56.29 56.13 56.22 56.15 56.15 56.10 55.04 56.21 57.33 56.32 52.01 51.99 52.40 51.89 51.82 51.78 51.62 51.38 51.27 51.13 51.19 51.25 51.28 51.27 51.30 51.29 51.32 51.33 51.33 51.32 51.36 51.28 51.23 51.23 51.20 52.60 51.34 51.33 51.37 51.35 51.36 51.36 51.38 51.38 51.38 51.39 51.39 51.37 51.34 51.35 51.34 51.36 51.30 51.34 51.33 51.32 51.30 51.28 51.27 51.56 51.84 51.81 52.59 52.19 51.53 54.33 51.22 51.42 51.32 51.24 51.26 51.24 51.26 51.28 51.29 51.24 51.25 51.18 51.23 51.20 51.20 51.22 51.19 51.14 51.21 51.17 51.12 51.78 51.64 51.15 51.06 51.12 51.17 54.14 55.36 52.78 52.02 51.16 51.17 51.20 55.59 51.19 51.21 51.19 51.22 51.22 -9999.0
